x	y	z
-6.681919601	-11.42828064	1.955576281
-2.916633437	-5.43446541	0.850240135
-5.141554715	-10.48359401	1.496212143
-4.156026466	-9.314415357	1.209362867
-5.036869545	-8.614703425	1.10382251
-2.92171719	-5.439835509	0.621443784
-6.223163348	-12.67723218	1.288711385
-5.12428909	-11.46940264	1.02727183
-2.63388066	-4.879832472	1.402964648
-2.437861256	-4.946785499	1.338570712
-2.112310093	-4.719945567	1.202389306
-3.197112669	-5.429164129	1.412619987
-2.573867341	-4.766057224	1.157768541
-2.471745322	-5.010908102	1.137576095
-2.370062257	-5.286238271	1.122627398
-2.884207953	-4.897806232	1.05489246
-2.913266797	-5.392725744	1.075692053
-3.432619445	-6.954275371	1.284717487
-6.724980638	-11.4213661	1.957914451
-2.933763711	-5.426363185	0.850376689
-5.159190153	-10.43842743	1.492017884
-4.195583624	-9.326072053	1.21254194
-2.943600798	-5.440472398	0.622545278
-6.287638837	-12.70985206	1.293982224
-5.17050528	-11.47816296	1.029472434
-2.652543991	-4.878542464	1.404926833
-2.451729764	-4.936671726	1.337863086
-2.12557884	-4.710779469	1.201709814
-3.1883707	-5.376526123	1.401462477
-2.600160265	-4.779613581	1.162994078
-2.488415321	-5.005933573	1.138174643
-2.385460303	-5.277153066	1.122246883
-2.96441677	-4.998874135	1.078614275
-2.930268597	-5.384627661	1.075864906
-3.567297981	-7.171605701	1.326882288
-6.767052952	-11.41259405	1.959960322
-2.948028628	-5.412987415	0.84969386
-5.17615529	-10.3923628	1.487696547
-4.230738733	-9.327626795	1.214425924
-2.958849647	-5.428795249	0.622244871
-6.382586268	-12.80279882	1.305432515
-5.211877388	-11.47585812	1.030694926
-2.739681312	-5.00217403	1.442944223
-2.458600112	-4.91261503	1.33338153
-2.137601459	-4.698916681	1.200350948
-3.1913427	-5.344099093	1.395555654
-2.63595937	-4.810205675	1.17240005
-2.506833781	-5.004408769	1.139571181
-2.347491305	-5.150995588	1.096944474
-3.165752473	-5.301246711	1.145947855
-2.786273913	-5.082821519	1.017266153
-3.592377792	-7.166801255	1.328026339
-6.810656142	-11.40621788	1.962444642
-2.95509206	-5.38654706	0.846962596
-5.215133289	-10.39061762	1.489730138
-5.244260785	-11.46850319	1.49524856
-2.955379968	-5.383060764	0.618039167
-6.327060734	-12.5945021	1.286166862
-5.254528951	-11.47612567	1.032162034
-2.778430095	-5.036187636	1.455207998
-2.462283178	-4.882489424	1.327248928
-2.299805704	-5.014602695	1.282790132
-3.187106105	-5.299997886	1.386585872
-2.731515883	-4.948495996	1.20814269
-2.527032414	-5.006316525	1.141765704
-2.364512931	-5.146445247	1.097515245
-3.194161987	-5.311731765	1.150327248
-2.796141413	-5.063902152	1.015191908
-3.606787085	-7.140776418	1.325248048
-6.850715721	-11.39374797	1.963905911
-5.791800845	-10.48092321	1.650771404
-5.234452396	-10.34978545	1.486171265
-5.284409535	-11.46318164	1.496661546
-6.108674357	-10.15962385	1.311283987
-5.393395894	-9.752725154	1.121622897
-6.325640161	-12.49595453	1.27807887
-5.29681346	-11.47533497	1.033547603
-2.270205296	-4.924682065	1.479634272
-2.977519852	-5.358126727	1.550864631
-2.477691091	-4.875778226	1.327484724
-2.324989456	-5.028741478	1.288225716
-3.196780756	-5.279344419	1.383741895
-2.630259486	-4.730694116	1.156932523
-2.545933487	-5.005527568	1.143361796
-2.404634324	-5.191725646	1.108739635
-3.330631138	-5.500392033	1.193391601
-2.798259319	-5.031198636	1.010351893
-2.779793523	-5.46177774	1.015222713
-6.885126453	-11.37183026	1.96375976
-2.801303502	-5.496918961	0.790557224
-5.325412411	-11.45952361	1.498309973
-6.134152092	-10.13148261	1.310074609
-6.376156037	-11.44675687	1.318690514
-2.821784536	-5.53209516	0.566702203
-5.339141954	-11.474392	1.034933172
-2.492638056	-4.86815415	1.327484726
-2.435454681	-5.225520631	1.34054286
-3.218042302	-5.277842868	1.385929623
-2.693498749	-4.809631115	1.178252628
-2.56172525	-4.998565281	1.143561235
-2.37071112	-5.077577275	1.085910342
-3.580893432	-5.872947165	1.27660052
-2.841601898	-5.072428987	1.020377632
-2.799688183	-5.459368839	1.016366647
-6.916377435	-11.34474101	1.962736826
-2.816795353	-5.485651756	0.790175933
-5.364335912	-11.45122437	1.499369742
-6.17089773	-10.12195067	1.311283987
-6.378138653	-11.36813622	1.31188128
-2.824631735	-5.495954251	0.563885049
-5.378975748	-11.46788372	1.035829745
-3.008912494	-5.337222639	1.550128754
-2.509789343	-4.864801854	1.328664179
-2.438221567	-5.189813831	1.33329553
-3.247493295	-5.289566138	1.391617696
-2.844687011	-5.043243847	1.237614684
-2.662920135	-5.156980412	1.18166672
-2.382933459	-5.063174005	1.084388397
-3.245486697	-5.286297852	1.151239674
-2.853762397	-5.057682726	1.019167658
-2.814159689	-5.446371103	1.015549467
-6.993589086	-11.39260127	1.974719863
-2.831332973	-5.472579063	0.789540428
-5.404954688	-11.44638632	1.50090039
-6.213882088	-10.12245354	1.313812654
-6.43207622	-11.38229787	1.315786576
-2.846974833	-5.497874777	0.564975576
-5.417115462	-11.45763449	1.036400281
-3.032452843	-5.340611866	1.553807909
-2.538148367	-4.882946593	1.335740322
-2.264871856	-4.782654036	1.230472988
-3.265245331	-5.282067847	1.392274061
-2.677552575	-4.713087489	1.158604671
-2.595513425	-4.988837705	1.144957772
-2.387936128	-5.033664831	1.079632304
-3.241009961	-5.242863094	1.143940608
-2.838120391	-4.994098587	1.008104796
-2.828577954	-5.433336457	1.014732405
-6.974934792	-11.28441776	1.95966802
-2.847192318	-5.462107804	0.789286215
-5.452422873	-11.45575357	1.504315021
-6.254314668	-10.11856021	1.315791647
-6.481731524	-11.38845275	1.31879065
-2.861525618	-5.484699892	0.564521209
-5.453527722	-11.44366052	1.036644779
-2.830809662	-4.95005659	1.44269901
-2.555822335	-4.880301975	1.337155459
-2.504844233	-5.247713614	1.352093406
-3.285044439	-5.277824187	1.393805424
-2.836725643	-4.957790994	1.220892959
-2.559855412	-4.883647313	1.122613302
-2.403791482	-5.027200546	1.079822561
-3.275783618	-5.262945654	1.150509757
-2.847557374	-4.975109942	1.006030437
-2.843400984	-5.421138464	1.014078663
-6.930070445	-11.13530182	1.937455515
-5.214303338	-9.103167122	1.446200276
-2.862552825	-5.450712722	0.788904924
-5.497421649	-11.45956503	1.507023099
-6.308961551	-10.13729876	1.320739071
-6.534948069	-11.400452	1.322495675
-2.875095486	-5.469724285	0.563885049
-5.493357602	-11.43675837	1.037541235
-2.571689736	-4.874157153	1.337627288
-2.515865029	-5.229471365	1.349375671
-3.822493924	-6.09950991	1.613891521
-2.937367874	-5.097341663	1.257471732
-2.670003637	-5.056001692	1.164110293
-2.414088943	-5.009189469	1.077539702
-3.2934808	-5.255369977	1.151057164
-2.886418281	-5.007310021	1.014327641
-2.860480338	-5.413261849	1.014242099
-3.492435747	-7.23285478	1.252734508
-7.075035235	-11.29086695	1.968289952
-6.06492129	-10.51326542	1.67316773
-2.879725725	-5.442781672	0.78903206
-5.536443875	-11.45069197	1.508082869
-6.325783113	-10.09515499	1.317770641
-6.579345255	-11.39672162	1.324398255
-6.817804559	-14.08328651	1.279525601
-2.598034122	-4.887696432	1.343524093
-2.451580007	-5.056084232	1.306570714
-3.821402352	-6.056395388	1.605578105
-2.940230323	-5.06631505	1.252037217
-2.672615952	-5.023563842	1.158524145
-2.420438083	-4.983215027	1.073544524
-4.363116537	-6.914937391	1.517468494
-2.910667925	-5.013763528	1.017439005
-2.889591424	-5.427973287	1.018654632
-6.965538049	-11.04069728	1.928395133
-6.12800093	-10.54771548	1.681634569
-2.898743205	-5.438297488	0.789667506
-5.578942854	-11.44882778	1.510084512
-6.3699835	-10.09671548	1.320519131
-6.617779344	-11.38250394	1.325099206
-6.246511143	-12.8028855	1.164931499
-2.623568292	-4.89940682	1.348949072
-2.428592307	-4.969778814	1.286187357
-3.837349138	-6.040524698	1.604484241
-2.959213669	-5.063180785	1.253500275
-2.719492048	-5.074070649	1.172090403
-2.448232388	-5.001336871	1.079061648
-4.34318821	-6.836785968	1.503235381
-2.982707606	-5.101743561	1.037144778
-2.902500704	-5.412126897	1.017347261
-5.134356627	-10.46874542	1.818614926
-6.163333645	-10.5339957	1.682454013
-2.917291182	-5.432874216	0.790175933
-5.624109397	-11.45215951	1.512792709
-6.40839059	-10.08887107	1.322058361
-6.654680153	-11.3655819	1.325499749
-6.273446801	-12.75861837	1.162649357
-2.452041709	-4.993047142	1.517803059
-2.651966989	-4.916137608	1.355789301
-2.500630991	-5.07764606	1.316082901
-3.853234202	-6.024613205	1.603390375
-2.989614614	-5.079361053	1.259770921
-2.745288293	-5.084672657	1.176479568
-2.735894492	-5.545831918	1.198344369
-3.745915505	-5.85681839	1.290286224
-3.054314776	-5.187630053	1.056504843
-2.921435732	-5.407536992	1.018164441
-5.213732604	-10.54860668	1.83525845
-7.323623297	-11.45196066	2.008038738
-6.206686038	-10.53381454	1.685458327
-2.937248643	-5.430005638	0.791065593
-5.66186031	-11.44019079	1.513499143
-6.44145452	-10.07251248	1.322498124
-6.294416418	-12.7026967	1.159307682
-2.358230631	-4.765018223	1.450678572
-2.668428965	-4.910540269	1.356496929
-2.569023905	-5.176392169	1.343713588
-3.873812561	-6.016045213	1.604265492
-3.012164428	-5.081942634	1.26269727
-2.806288662	-5.159725663	1.195831528
-2.665051485	-5.360714424	1.160105368
-3.479087874	-5.403036069	1.192661682
-3.075238917	-5.186707152	1.058233377
-2.940369983	-5.402881082	1.018981502
-7.359794001	-11.4311017	2.008330803
-6.250095403	-10.53346578	1.688462758
-2.950097124	-5.414000953	0.790048856
-5.693829243	-11.41654654	1.51267493
-6.50461001	-10.10284507	1.329094689
-5.76921547	-11.5535613	1.056042634
-2.366810682	-4.745674493	1.446993337
-2.758606318	-5.039571485	1.394472238
-2.545681594	-5.090083776	1.32333035
-3.897559055	-6.012319708	1.606453219
-3.039268977	-5.091990767	1.267504742
-2.753365185	-5.025622897	1.166703811
-2.664775746	-5.319158584	1.152876159
-3.915489233	-6.039978428	1.335905115
-2.82224569	-5.148149148	0.972567603
-7.6122135	-11.74384111	2.067369441
-6.291528513	-10.52954767	1.690920854
-2.951897726	-5.377969858	0.786108751
-5.722584914	-11.38660167	1.511026503
-6.539899421	-10.08951391	1.329974215
-5.805082251	-11.53669702	1.056124055
-2.379626138	-4.734943181	1.445940364
-2.764200817	-5.013213637	1.389518973
-2.47756083	-4.916117733	1.280072399
-3.933585093	-6.027299772	1.613672655
-3.078050309	-5.121198447	1.277119689
-2.663189948	-4.825834641	1.122214307
-2.671348728	-5.291677353	1.148690722
-3.600838968	-5.51744424	1.222770135
-3.202418864	-5.326435983	1.090730663
-2.73072457	-4.945149545	0.935796008
-7.661182592	-11.74031467	2.070876579
-6.345763994	-10.54669552	1.696793102
-5.714557769	-10.33586938	1.513370533
-6.576254374	-10.07772601	1.331073681
-6.322265705	-11.42513331	1.191564993
-6.699975146	-13.21403451	1.211551511
-2.406345341	-4.751718489	1.453310951
-2.901300993	-5.22389417	1.450373767
-2.49395459	-4.911098707	1.280751773
-3.943485267	-6.002155617	1.610172313
-3.144381615	-5.195392608	1.298021844
-2.677982968	-4.817641246	1.122214306
-2.643950068	-5.197703372	1.130046865
-4.313657192	-6.565573235	1.457981389
-3.207012753	-5.297206845	1.086754914
-2.735333074	-4.91778125	0.932200597
-2.794992593	-5.484446339	0.960085655
-7.72052128	-11.75230855	2.07716034
-6.388357736	-10.54412258	1.699524307
-5.801256755	-10.41707783	1.527859826
-2.813347054	-5.513324473	0.733906986
-6.600047339	-10.04670368	1.329644363
-6.380075428	-11.44656649	1.195836261
-2.467392194	-4.835401937	1.481213675
-3.242253826	-5.32290634	1.576863582
-2.760749804	-4.935095183	1.37253618
-2.499692618	-4.885215465	1.275995681
-4.013557796	-6.068159564	1.631174604
-3.167430652	-5.197411969	1.300948192
-2.815300689	-5.028283934	1.173287501
-2.674213336	-5.217524952	1.136134647
-4.131464274	-6.246424339	1.389918009
-3.339116006	-5.477408157	1.125820634
-2.750407866	-4.909366071	0.932200596
-2.813159407	-5.478482667	0.96054795
-7.772911307	-11.75332108	2.08154438
-6.42738356	-10.5354683	1.701299574
-2.829340179	-5.502901248	0.733671489
-7.752061637	-11.72179442	1.554476779
-5.142012089	-8.422593848	0.99314854
-6.39761265	-11.39567805	1.192564682
-2.564705987	-4.988249924	1.530438289
-3.242856638	-5.287315665	1.569260174
-2.970508425	-5.272031718	1.468771812
-2.508865932	-4.866269043	1.273051449
-4.022421407	-6.041197625	1.627236645
-3.066747127	-4.997633591	1.253291301
-2.850929983	-5.055471409	1.181666721
-2.685252822	-5.199700523	1.134042044
-4.147339307	-6.228809348	1.388823073
-3.857255187	-6.283893349	1.294010994
-2.942418542	-5.214514496	0.991852327
-2.83177007	-5.47333611	0.96116438
-7.818801385	-11.74424108	2.084174852
-6.461231175	-10.5182312	1.701709294
-2.843012217	-5.488022754	0.732847276
-7.790190352	-11.7012658	1.554916542
-6.376155438	-10.37242944	1.225363826
-6.45117036	-11.40893784	1.196017937
-2.575116358	-4.970935488	1.527542698
-3.258553255	-5.276516918	1.569014842
-3.073961877	-5.416714908	1.511700389
-2.520640779	-4.852498484	1.271466084
-4.056148551	-6.051524066	1.633362333
-3.225476849	-5.220307412	1.311608246
-2.86787843	-5.04925717	1.182265154
-2.697114308	-5.183600132	1.132329842
-4.164787247	-6.213606397	1.388275665
-3.830946241	-6.198300374	1.278799531
-2.820938555	-4.963587609	0.945765242
-2.849005467	-5.465499042	0.961318518
-7.883985069	-11.76375245	2.091920117
-6.482006085	-10.47982466	1.698704982
-2.85891674	-5.477513808	0.732611777
-7.850953395	-11.71446504	1.559863965
-6.339872769	-10.24283565	1.212346172
-6.496984448	-11.40813024	1.198017196
-2.601960828	-4.985248012	1.534386741
-3.273702231	-5.26484863	1.568524297
-3.055363338	-5.345668624	1.494481798
-2.535064613	-4.843879462	1.271239587
-3.249225904	-5.222842426	1.31474357
-2.883842183	-5.041285556	1.182464709
-2.733516135	-5.214428426	1.140890738
-4.181630853	-6.197539617	1.387545746
-3.368571159	-5.412993923	1.118906375
-2.883692206	-5.037962627	0.961617873
-2.864841036	-5.45498291	0.961010302
-7.936637293	-11.76411234	2.096304159
-6.544501159	-10.50866004	1.706625604
-2.875245822	-5.467838185	0.732494
-7.895194335	-11.702683	1.561513107
-6.34811265	-10.18618292	1.207940196
-6.544340846	-11.40974048	1.200289087
-3.29138227	-5.257245586	1.569260175
-3.280701783	-5.699264184	1.596142407
-2.553093497	-4.842109995	1.27282495
-3.827852615	-5.635839572	1.527475994
-3.275097136	-5.228595356	1.318714908
-2.897338504	-5.02901789	1.181666721
-2.844406292	-5.385715101	1.180271169
-4.201177468	-6.185494682	1.387728255
-3.305671198	-5.27576852	1.092632051
-2.931161294	-5.08464749	0.972240732
-2.880177052	-5.443548195	0.96054795
-7.981027669	-11.75198312	2.098496178
-6.617232295	-10.55315784	1.717140937
-5.099108499	-8.834662602	1.307088512
-2.890612821	-5.456358975	0.732140783
-7.948928941	-11.70471799	1.565031212
-7.157778249	-11.40725566	1.355340337
-6.585292113	-11.39995648	1.201379613
-3.32765729	-5.279107475	1.578825768
-3.092492681	-5.3343875	1.496604678
-2.570678377	-4.839415723	1.274183818
-3.632547404	-5.313142556	1.443029445
-3.570730186	-5.661878315	1.430750302
-2.92013027	-5.032818925	1.184659234
-2.826330531	-5.311961628	1.166002892
-3.18415414	-5.047347287	1.04734337
-2.931886971	-5.050035207	0.967337891
-2.896864122	-5.434686296	0.96054795
-8.00085503	-11.70375848	2.094258288
-6.666500913	-10.55961189	1.721510912
-5.125191807	-8.817262713	1.306834358
-2.907806758	-5.448340937	0.73225856
-7.988166573	-11.6851992	1.565690915
-6.375952423	-10.09236367	1.201431251
-6.630751631	-11.39777639	1.203288034
-2.650913308	-4.967047033	1.536229361
-3.350590666	-5.279514278	1.582014376
-3.101004387	-5.311447162	1.49283075
-2.589189915	-4.83837634	1.275995679
-3.882678717	-6.114856293	1.548220209
-2.9434668	-5.03737313	1.187851301
-2.715069754	-5.065314905	1.113685985
-3.231308725	-5.087439949	1.057714817
-2.934419848	-5.018873568	0.963088737
-2.911654039	-5.422291309	0.959931577
-6.985291998	-10.98973504	1.795118238
-6.439521493	-11.00058768	1.63335218
-2.92450831	-5.439394301	0.73225856
-8.043135853	-11.6884763	1.569428961
-7.252734829	-11.40257967	1.360046719
-6.671729578	-11.3876906	1.20437856
-2.657002649	-4.941896563	1.53096472
-3.45028912	-5.39991926	1.621258193
-2.611416902	-4.844127854	1.279619402
-3.900676266	-5.630850458	1.53578941
-3.977795114	-6.222386942	1.578528336
-2.960895299	-5.031697035	1.188649288
-2.724533358	-5.045731626	1.111212753
-3.260167326	-5.098246932	1.062036272
-2.961817144	-5.030250346	0.967011021
-2.928745829	-5.414201962	0.960085655
-7.227221494	-11.29367014	1.848377847
-6.409772388	-10.87311618	1.617337722
-2.940236347	-5.428649794	0.732023062
-8.114046599	-11.71440431	1.576245349
-7.317731337	-11.42719715	1.365654324
-6.696007976	-11.34915697	1.202470139
-2.635562622	-4.853212237	1.284148998
-3.701944466	-5.309099551	1.451124112
-3.970403951	-6.169038186	1.568077258
-2.96582779	-5.004886325	1.184459677
-2.832412758	-5.207244213	1.148690722
-3.731837535	-5.351969877	1.210909286
-3.277392573	-5.090705433	1.062554832
-3.037615789	-5.122971496	0.9866225
-2.945815397	-5.406059005	0.960239793
-7.368067513	-11.4363315	1.875417256
-6.420315781	-10.815019	1.611618299
-2.954499491	-5.415245291	0.731434289
-8.162454283	-11.70739262	1.578664105
-7.360302951	-11.41640017	1.367056226
-6.715534925	-11.30287594	1.199743823
-2.64997222	-4.844249067	1.283922617
-3.716533466	-5.295320779	1.450467746
-3.965914126	-6.120717416	1.558880379
-2.9706239	-4.978093493	1.180270186
-2.928099375	-5.344033537	1.180841943
-3.549982802	-5.058019283	1.146860282
-3.292995417	-5.0806269	1.062554834
-3.065457008	-5.133957281	0.990544842
-2.964764133	-5.401326658	0.961010303
-7.631148154	-11.76523328	1.933183336
-6.395953982	-10.69906648	1.597256082
-2.962490041	-5.390490433	0.729314925
-8.197762155	-11.68148215	1.578554194
-7.418586636	-11.42965317	1.371362066
-2.67281296	-4.85059882	1.287772723
-3.67871266	-5.207384938	1.429465454
-3.944602245	-6.04709205	1.543203761
-2.976797583	-4.95383767	1.176679007
-2.916018122	-5.283454024	1.169427296
-3.955219119	-5.598792345	1.272221127
-3.322022935	-5.091121721	1.066876288
-3.086785345	-5.133828711	0.992342519
-5.116914895	-9.254774152	1.649405564
-7.680205972	-11.76167297	1.936460758
-6.594493287	-10.9547277	1.638436216
-6.300465451	-11.38134178	1.542464498
-8.262235135	-11.6968679	1.584051292
-7.584239077	-11.60674001	1.395394659
-5.298545246	-9.560414833	0.893850349
-3.178090659	-5.256602447	1.490943669
-2.677282779	-4.823639843	1.282790131
-3.65848245	-5.145178929	1.415463965
-3.981387044	-6.062753695	1.550310424
-2.983357741	-4.930429418	1.173287501
-2.811051811	-5.056536324	1.121105453
-3.454464204	-4.858254076	1.106350582
-3.396570568	-5.170637023	1.085717793
-3.093323868	-5.109143743	0.989400791
-5.135669472	-9.221767806	1.646323408
-8.333011694	-11.72059567	2.124361972
-7.723328406	-11.74881646	1.938236141
-6.419834813	-10.59091475	1.586961049
-6.360017754	-11.40619236	1.548469546
-8.300960687	-11.67551542	1.584600967
-7.719332268	-11.73470427	1.413619375
-5.373517115	-9.625918697	0.901511692
-3.213910743	-5.279199982	1.500142692
-2.685890068	-4.804351039	1.2798459
-3.73842199	-5.223596177	1.44018535
-3.997271882	-6.046431684	1.549265316
-2.993881366	-4.913721916	1.171491969
-2.825112833	-5.045318556	1.12053468
-3.459053056	-4.83324161	1.10306601
-3.456424508	-5.226737923	1.099719164
-3.124390182	-5.124900051	0.994303747
-8.375839647	-11.70462946	2.126115542
-7.768084298	-11.73828427	1.940421129
-6.905497818	-11.31367375	1.698426981
-6.39789897	-11.39182145	1.549175981
-8.36219185	-11.68555811	1.589438479
-7.772877063	-11.73751234	1.416823721
-5.358084199	-9.529461283	0.894013368
-3.237202165	-5.280913701	1.503444906
-2.893210856	-5.138120343	1.371117895
-3.773820972	-5.239021973	1.447623652
-4.023388497	-6.045537462	1.552191666
-3.007405256	-4.902008078	1.170893421
-2.778847713	-4.927172697	1.096183558
-3.463520883	-4.808246487	1.099781436
-3.488817928	-5.240705697	1.104904887
-3.154550037	-5.138832215	0.998879717
-4.126799671	-7.304407983	1.308521236
-8.389160781	-11.6475715	2.120416383
-7.822734377	-11.74242744	1.945064212
-7.001978983	-11.3929956	1.713551897
-6.453353746	-11.40844141	1.554121259
-8.41020209	-11.67678499	1.591747323
-7.811610168	-11.71775002	1.4173244
-5.179396224	-8.420531789	0.902125255
-5.456545488	-9.63526225	0.905505383
-3.519063272	-5.255306149	1.600164587
-3.261044815	-5.283361485	1.506983037
-2.784510639	-4.909783756	1.312459178
-3.851733169	-5.312738896	1.471251171
-4.059878515	-6.059975658	1.559089353
-3.019340339	-4.887756735	1.169696441
-2.871533864	-5.05520524	1.126622577
-3.459211423	-4.77132918	1.093759815
-4.269242065	-6.370557979	1.345868227
-3.168226123	-5.125773245	0.998225974
-4.172645417	-7.332933492	1.315918411
-4.077142453	-5.624268075	1.026158789
-7.858171081	-11.71754955	1.944927717
-7.069781994	-11.42459869	1.721559067
-6.463253155	-11.34458487	1.548116329
-8.447153389	-11.65253773	1.591967146
-7.862492429	-11.71603525	1.420028066
-5.480154524	-9.608086957	0.904527329
-3.523790343	-5.227603706	1.59501391
-3.285958688	-5.287363493	1.510992763
-2.573953199	-4.506245044	1.206692406
-3.860537214	-5.290649858	1.468407193
-4.090480362	-6.065328392	1.563687851
-3.027075925	-4.866821314	1.166903366
-2.899217068	-5.067675118	1.131378669
-3.446014774	-4.722570266	1.085000914
-4.224870064	-6.262713813	1.325816748
-3.173511325	-5.099277234	0.994957374
-4.154836954	-7.249802593	1.30328163
-8.464552555	-11.60147122	2.121439199
-7.941196439	-11.7631751	1.956535601
-7.125255679	-11.43568658	1.726516026
-7.897842979	-11.69103387	1.419927931
-6.351774207	-10.185968	1.095418291
-5.515067206	-9.60073596	0.905423903
-3.377940192	-5.398356051	1.545665859
-2.588737516	-4.500015403	1.2071454
-4.102478224	-6.043041453	1.561179569
-3.026910334	-4.833427314	1.161117664
-2.904948563	-5.041743645	1.127573748
-3.451757486	-4.700089062	1.082263867
-8.641803224	-11.76841187	2.156803827
-7.980032168	-11.74285332	1.957218314
-7.170848139	-11.43057749	1.729057926
-7.935352004	-11.66921702	1.420228338
-6.369756325	-10.14534711	1.093146399
-5.569450804	-9.626905928	0.909499072
-2.813619055	-4.868926688	1.534386742
-3.536115431	-5.177064532	1.586184078
-3.61774623	-5.742340995	1.647326466
-3.215810524	-5.550592083	1.491605945
-3.821587947	-5.170345202	1.44149808
-3.91961116	-5.73572815	1.484886817
-3.038066543	-4.818315947	1.159721128
-2.928779111	-5.047243137	1.130807897
-3.462654434	-4.684732925	1.081168931
-3.104723691	-4.921176701	0.963905857
-8.689626807	-11.75775469	2.159726599
-8.03168225	-11.74120946	1.961042072
-7.223892396	-11.43703671	1.733379381
-8.010456144	-11.70229006	1.427237963
-6.368924637	-10.07525123	1.087693886
-5.592436809	-9.598578442	0.90843954
-3.523970249	-5.125449722	1.57367509
-3.341770408	-5.268384953	1.514294979
-3.233806051	-5.542382608	1.492058939
-3.690085108	-4.96052012	1.386148373
-3.855718847	-5.605238173	1.454160739
-3.052309346	-4.808145305	1.159521688
-2.946726661	-5.042472278	1.131759069
-3.484052644	-4.68355427	1.083358686
-3.153660311	-4.964925204	0.974365339
-8.692595155	-11.6865899	2.15154312
-8.073845973	-11.72548862	1.962544346
-7.209446826	-11.33698122	1.721559067
-6.535266365	-8.786209981	1.211236397
-8.053095135	-11.68749076	1.428439592
-7.236608229	-11.37048629	1.229914622
-5.681375823	-9.682811491	0.918056929
-3.542988351	-5.119397349	1.575146729
-3.366809507	-5.272031122	1.518304821
-3.291256731	-5.60129678	1.510630317
-3.705871173	-4.949956856	1.386367123
-4.016523475	-5.800812965	1.508088162
-3.203722965	-5.01260548	1.211193316
-2.964174469	-5.036792335	1.132520099
-3.514315124	-4.694094053	1.088285487
-3.683393592	-5.318107371	1.135327813
-3.160904938	-4.942759301	0.971913918
-8.728408867	-11.65986556	2.15154312
-8.119374099	-11.71450392	1.964865828
-7.356507226	-11.49023235	1.748249907
-6.573508329	-8.781237364	1.213325302
-8.129174558	-11.72077687	1.435549234
-7.310141755	-11.40860335	1.23645778
-5.616242791	-9.504875914	0.902815782
-3.566989938	-5.120435718	1.578825768
-3.386121339	-5.266581824	1.519720074
-3.334714606	-5.635600665	1.522633858
-3.728086309	-4.94791625	1.388992468
-3.676442446	-5.27500294	1.374314597
-3.731828192	-5.799600184	1.404114475
-2.979112669	-5.026830159	1.132329842
-3.530474789	-4.685645859	1.088832896
-3.699691836	-5.306781741	1.135327812
-3.187803637	-4.951287625	0.975509331
-4.325575969	-7.286322287	1.321620311
-8.830213877	-11.72073635	2.167763929
-7.407845708	-11.49262007	1.752062935
-6.403080665	-10.77297173	1.485946776
-8.175346608	-11.71046692	1.437351679
-7.300301536	-11.31666427	1.228915051
-5.738133155	-9.643486084	0.917649411
-3.405959618	-5.26187898	1.521371124
-3.508045976	-5.887240006	1.593522496
-3.756809189	-4.954338222	1.394024175
-3.763933503	-5.365370175	1.400860241
-3.91635917	-6.045538461	1.466559402
-2.99452078	-5.017666449	1.132329841
-4.36168422	-5.752024061	1.339737099
-3.711429449	-5.288956531	1.133944985
-3.199222814	-4.935689634	0.97436534
-3.05864481	-5.116384216	0.929726625
-8.864338409	-11.6912257	2.167325714
-7.645547216	-11.78185893	1.799725075
-6.375412616	-10.65187842	1.471935036
-8.866579453	-11.6941814	1.623300712
-8.20780371	-11.68044568	1.436750864
-7.39682108	-11.38942497	1.239274934
-5.675995136	-9.472800856	0.90306028
-3.581570846	-5.074690964	1.571467574
-3.482570163	-5.344220096	1.548260447
-3.792710013	-4.969938503	1.401681226
-3.719457334	-5.267523282	1.378285937
-3.806954882	-5.837330087	1.41887783
-3.054907747	-5.083347333	1.149261496
-4.374538698	-5.732362869	1.33827738
-3.723660436	-5.271913518	1.132735009
-3.21866338	-4.932460544	0.975672767
-3.072288927	-5.103590457	0.929110194
-8.869559822	-11.62386577	2.15987275
-7.684369768	-11.76249949	1.80036058
-6.384482257	-10.59314518	1.466518761
-8.916282348	-11.68509895	1.625829499
-8.283817842	-11.71207204	1.44376037
-7.623557044	-11.66007712	1.271263198
-5.789988141	-9.596148928	0.916508399
-3.612843217	-5.085808267	1.578335221
-3.569845446	-5.441578438	1.579631443
-4.053402256	-5.277893979	1.492034714
-3.719171415	-5.232971452	1.372224382
-3.11279617	-4.741100446	1.154733529
-3.233136672	-5.342724951	1.210139415
-4.067517815	-5.296273266	1.239375511
-3.741529153	-5.26287297	1.13325357
-3.298239604	-5.020684257	0.99512081
-3.078713014	-5.078931804	0.926336254
-8.816007141	-11.48047718	2.138244847
-7.720965776	-11.73969752	1.800487775
-6.393251738	-10.534457	1.461102487
-8.964802577	-11.67424378	1.628138226
-8.3197117	-11.68660307	1.443760371
-7.712950841	-11.71815359	1.280169085
-3.72033809	-5.203243725	1.618314798
-3.659356895	-5.540883422	1.611709949
-4.206222369	-5.442234353	1.542133846
-3.750570217	-5.243011221	1.377867987
-3.842159977	-5.813043843	1.418678275
-3.209155649	-5.266550586	1.195110222
-4.199790214	-5.433911891	1.274593274
-3.811535101	-5.326663752	1.149502155
-3.323967129	-5.026176462	0.998225973
-3.090162263	-5.062715788	0.925103392
-8.873568857	-11.4823381	2.143651704
-6.606536786	-9.226244182	1.564327145
-7.766802705	-11.73084133	1.802775521
-6.886912404	-11.269784	1.566013577
-9.004831187	-11.65218978	1.62890784
-8.393195446	-11.713594	1.450269198
-7.753265995	-11.70107693	1.280896024
-3.865452035	-4.966699546	1.660499636
-3.782152279	-5.255542435	1.63818198
-3.683871188	-5.540960216	1.615012166
-3.557130538	-5.806372955	1.583330818
-4.209120474	-5.411588997	1.537102023
-3.768923555	-5.234654306	1.378704003
-4.039648698	-6.071262446	1.48471438
-3.166768244	-5.161286998	1.173422475
-4.24481275	-5.457477863	1.283169667
-3.807136899	-5.286172336	1.14327931
-3.334451177	-5.008564207	0.996755168
-3.102575688	-5.048160834	0.924178745
-9.066657129	-11.65809501	2.181646804
-8.411238366	-11.67075932	1.983165289
-7.822559576	-11.73667099	1.80735113
-6.976098119	-11.33740761	1.578376892
-9.081419769	-11.67707674	1.636274021
-8.433748686	-11.69424514	1.451070285
-7.825047931	-11.73108529	1.286802964
-3.890210595	-4.966996741	1.664581362
-3.80167038	-5.248624805	1.639653618
-3.230781372	-5.237525912	1.430908985
-3.846797216	-4.91456985	1.399274747
-3.790129908	-5.23019379	1.380585245
-4.075706391	-6.084892876	1.491098515
-3.311068074	-5.359513326	1.220793148
-4.000341151	-5.110733667	1.204522533
-3.470137725	-4.787213133	1.037663339
-3.348153697	-4.995852133	0.996264861
-4.340935075	-7.014744822	1.286638105
-9.109088599	-11.63879326	2.183254223
-8.44816714	-11.64650269	1.983438515
-7.859083039	-11.71343955	1.807478207
-6.593491864	-10.6423123	1.48441601
-9.145993863	-11.68594784	1.641441267
-8.491211392	-11.69810794	1.454775309
-7.865442841	-11.71363713	1.28753002
-3.823465944	-5.244770531	1.642106349
-3.261223944	-5.250756591	1.437250441
-3.907745027	-4.961001195	1.41590158
-3.807310649	-5.220121071	1.38100331
-4.088329266	-6.063423038	1.48890399
-3.330088012	-5.353497651	1.221744318
-3.961854992	-5.029695203	1.188282291
-4.032810685	-5.527678331	1.200840827
-3.333118965	-4.940575398	0.987276242
-4.362435616	-7.001393874	1.286638105
-9.156382771	-11.62555892	2.186030846
-8.522411142	-11.67333459	1.992451455
-7.946057612	-11.76489532	1.819171328
-7.097565522	-11.37780215	1.590033653
-9.203941747	-11.68594324	1.645399253
-8.508279186	-11.64629351	1.451570964
-7.903573558	-11.69275119	1.28789349
-3.75871277	-5.542207863	1.625390526
-3.273702642	-5.234945715	1.435665077
-3.919309815	-4.944400991	1.414588849
-3.827937121	-5.214722467	1.382675459
-4.016112607	-5.917072609	1.455985657
-3.273542639	-5.226772775	1.195110222
-3.954058459	-4.988237693	1.181348127
-4.068404643	-5.540684744	1.206372257
-4.371818081	-6.968726481	1.283093655
-9.199994708	-11.60749055	2.187930565
-8.569915901	-11.66309924	1.995182777
-7.991037442	-11.75358617	1.82120492
-7.13772028	-11.36438228	1.591211083
-9.240985003	-11.65920921	1.645619076
-8.582280259	-11.67223995	1.45807979
-7.943890887	-11.67503547	1.288620547
-3.943602287	-4.940805651	1.667897764
-3.916619329	-5.303877334	1.668105416
-3.730768974	-5.464837509	1.606049056
-3.344239617	-5.311423068	1.459445543
-4.055549298	-5.084153438	1.458124797
-3.846823237	-5.206886908	1.383720568
-3.553321326	-5.200817083	1.282416572
-3.096860062	-4.911109985	1.125100631
-3.969956356	-4.976852049	1.181530635
-3.727715538	-5.044194161	1.100756402
-6.485665939	-9.487409303	1.903787658
-9.233712194	-11.57689104	2.187492114
-8.626861912	-11.66542587	2.000098969
-8.037703199	-11.74456701	1.823619743
-7.191659243	-11.37264633	1.595449927
-9.315757431	-11.6797566	1.652545492
-7.991489829	-11.66786283	1.290528968
-3.944815631	-4.911345337	1.662030284
-3.695200569	-4.972038699	1.567297989
-3.696332382	-5.37888188	1.584112998
-4.283083456	-5.335734808	1.534039181
-3.89428869	-5.2374369	1.395007662
-3.558155014	-5.17374355	1.278426518
-4.27585393	-6.734915123	1.545919437
-3.990746027	-4.971549557	1.183172981
-4.129364489	-5.551971909	1.214323755
-3.145712189	-4.946615761	0.914315904
-4.074503666	-5.076436842	0.961567145
-8.666159103	-11.64367239	2.000918413
-8.076510519	-11.7239361	1.824255247
-7.241982145	-11.37482141	1.598864558
-9.375810775	-11.68135176	1.656833213
-8.073034653	-11.70970163	1.297889903
-3.714501941	-4.966112686	1.569014842
-3.573503593	-5.166114448	1.524673339
-4.014316352	-4.969603798	1.432309548
-3.904479421	-5.217635421	1.392917447
-3.536084663	-5.108016831	1.264860145
-4.030543092	-6.305687324	1.450226922
-4.161671614	-5.15202485	1.229156774
-4.140475815	-5.531391838	1.212595102
-3.190708041	-4.983540092	0.922945882
-4.28648084	-5.307103361	1.007745724
-8.727378287	-11.65112344	2.006790662
-8.109614712	-11.6950275	1.823619742
-7.301496835	-11.3910081	1.604280833
-9.439083654	-11.68655481	1.661670726
-8.1231157	-11.7053332	1.300161794
-3.731469308	-4.957017274	1.569750721
-3.86753188	-5.554681282	1.642844914
-3.342962187	-5.202572838	1.437929817
-4.069550463	-5.006481374	1.446529787
-3.889288451	-5.164230434	1.381839327
-3.836326495	-5.505558579	1.366208544
-3.910676946	-6.076994076	1.400383017
-4.148310052	-5.103374292	1.220580498
-4.137869365	-5.492702131	1.206890819
-3.181893333	-4.936356291	0.916011119
-4.276536967	-5.261685115	1.001608114
-8.835238705	-11.72000941	2.023314739
-8.185196348	-11.72702742	1.832516689
-7.339101614	-11.37272541	1.604869606
-9.494953084	-11.6822222	1.66518883
-8.16526202	-11.68933682	1.301161365
-3.751928417	-4.952500595	1.57195812
-3.614058429	-5.156823654	1.528447268
-3.373721016	-5.215190606	1.44427139
-4.070681596	-4.976600908	1.441498081
-3.896843928	-5.141363195	1.378913095
-3.836881737	-5.470498101	1.360422959
-4.235169894	-6.537080875	1.509392639
-4.045048863	-4.945263987	1.185727636
-4.147560436	-5.470563117	1.204816576
-3.200787913	-4.9323732	0.917089846
-4.065938522	-4.971333866	0.948707321
-8.856783854	-11.67390721	2.0200372
-7.382614209	-11.36347901	1.606753471
-9.559066003	-11.68765918	1.670136254
-8.213687185	-11.68215355	1.303160624
-3.769456041	-4.944050149	1.572939212
-3.563202934	-5.051214922	1.500378606
-3.421598337	-5.253787134	1.45786018
-4.03508093	-4.902310799	1.423558632
-3.876420626	-5.081954164	1.366162709
-3.680150889	-5.2129432	1.299175013
-4.050329034	-6.209941681	1.436719557
-4.046455264	-4.91612967	1.181713144
-4.35611013	-5.709169783	1.26030385
-3.242925009	-4.963888946	0.924795177
-4.13334894	-5.022235075	0.960836509
-8.899771309	-11.65612835	2.021676088
-7.56583466	-11.56765847	1.638898017
-9.622669598	-11.69204533	1.674973767
-6.503881502	-8.512659488	1.078163957
-8.298387121	-11.72599586	1.310885147
-3.577557856	-5.038674481	1.499906893
-3.417406503	-5.212311937	1.449253865
-4.058815893	-4.900429002	1.426621476
-3.71335256	-4.837324562	1.303456357
-3.731884512	-5.251951144	1.311743728
-4.056968608	-6.17861149	1.43234398
-4.060891649	-4.902935181	1.181530637
-4.416195509	-5.751244353	1.272576686
-3.264653997	-4.963822553	0.92664447
-4.126653071	-4.98286351	0.955721775
-8.980155092	-11.68689739	2.031781698
-7.719247358	-11.72354217	1.664330962
-9.672441993	-11.67930935	1.677392523
-8.970441802	-11.66666842	1.481111025
-8.338945138	-11.70697025	1.311612086
-3.976287219	-5.149489763	1.64603072
-3.591304413	-5.025303078	1.499199267
-3.441429881	-5.213996896	1.452651092
-4.108815924	-4.929929872	1.438872736
-3.719805956	-4.81507526	1.300530126
-3.699526791	-5.172729401	1.294785848
-4.068325826	-6.15467009	1.429680605
-4.080320926	-4.895740374	1.182807964
-4.432614891	-5.736109585	1.272230979
-4.591159942	-6.934307863	1.297117318
-4.152687247	-4.983099109	0.958206038
-8.994151597	-11.63107964	2.026865505
-7.755727001	-11.70063219	1.66444874
-9.72668134	-11.67172333	1.680580776
-9.020197689	-11.65719199	1.48341415
-8.40267539	-11.72017998	1.315974191
-3.615216507	-5.026094853	1.50273728
-3.545273691	-5.335649037	1.489567584
-4.108245874	-4.898609791	1.433403414
-3.675139195	-4.727208062	1.279836944
-3.423987934	-4.756558478	1.193237892
-4.145926975	-6.2304303	1.450226922
-4.085844613	-4.871898817	1.1800708
-4.448378049	-5.720150983	1.271712418
-4.044111043	-5.614924302	1.14629297
-4.184482509	-4.990043928	0.962005536
-9.047436522	-11.62610337	2.03082564
-7.812532606	-11.70817228	1.668923023
-9.766914017	-11.64715822	1.681350391
-9.060808703	-11.63574328	1.484215235
-8.44150604	-11.69838432	1.316428499
-3.647715331	-5.038594572	1.509813424
-3.466859184	-5.183067071	1.449933357
-4.020047869	-4.763684063	1.397524635
-3.58899322	-4.587288023	1.244930437
-3.440289484	-4.748412035	1.193836441
-4.083612464	-6.096149669	1.421880622
-4.110917613	-4.87136326	1.182990472
-4.47744009	-5.721214184	1.274996636
-4.111693781	-5.671982936	1.160511301
-4.569212112	-6.810010109	1.279086794
-4.198496452	-4.975670432	0.961713294
-9.139254569	-11.67004501	2.043389582
-6.643181128	-9.154018172	1.449312586
-7.85173845	-11.68909458	1.669629575
-4.834958643	-5.729946924	0.829296153
-9.122240241	-11.64078304	1.488420939
-8.493742347	-11.69499191	1.318973021
-4.118840221	-5.23380681	1.685029205
-3.786768752	-5.1970276	1.560761687
-3.471864048	-5.156247757	1.445403761
-3.944325284	-4.644966133	1.366239946
-3.587926333	-4.557046865	1.239704898
-3.460037468	-4.744960701	1.195631972
-4.081987702	-6.05347585	1.414841553
-4.112478665	-4.842989582	1.179158489
-4.495580559	-5.70822418	1.275169488
-4.111050038	-5.634635146	1.155445024
-4.219504126	-4.969553474	0.96302853
-4.658943264	-5.911618171	1.037604356
-6.648417328	-9.102355459	1.444355626
-7.920937662	-11.71430955	1.676694276
-4.863451488	-5.727966971	0.831165176
-9.179474571	-11.64008564	1.491925692
-6.494447694	-8.884716818	1.004269794
-4.149322823	-5.23938568	1.690915877
-3.77913309	-5.153256078	1.551090953
-3.480562545	-5.135090596	1.442459529
-3.980742823	-4.658808071	1.373896997
-3.621323713	-4.570545627	1.246393612
-3.486173981	-4.750122639	1.199622143
-4.097231834	-6.036050274	1.413700123
-4.135620828	-4.840067197	1.181530635
-4.291609234	-5.414972798	1.212595103
-4.089778669	-5.569513666	1.144658611
-4.251438459	-4.976140059	0.966828028
-9.214382269	-11.61840429	2.04420879
-8.599188582	-11.69764174	1.860351462
-7.959633423	-11.69405734	1.677282932
-4.877773639	-5.709240614	0.830615442
-9.229987319	-11.63057359	1.494328952
-8.601930109	-11.69238949	1.324607328
-4.135167161	-5.188723636	1.678652102
-3.691049377	-5.00089935	1.508634087
-3.491359896	-5.117147025	1.440421171
-4.051634669	-4.712424526	1.393367926
-3.782254184	-4.743686746	1.296767762
-3.539155575	-4.791425656	1.212789407
-3.956219115	-5.790003409	1.358909983
-4.161347402	-4.840030727	1.1846327
-4.179846201	-5.240843582	1.176467892
-4.098051047	-5.545039385	1.142207192
-4.282807699	-4.981827432	0.970481376
-4.697600383	-5.886017336	1.038150573
-8.65391403	-11.69672057	1.864418644
-8.016239984	-11.6998931	1.681639554
-10.0536005	-11.69450311	1.70586757
-9.320885238	-11.6713966	1.503241156
-6.561285324	-8.861507764	1.006178215
-4.134083888	-5.15483684	1.671784456
-3.649585407	-4.913101285	1.48551869
-3.499322749	-5.095171025	1.437250442
-4.097993668	-4.736869125	1.40430657
-3.727634858	-4.645870518	1.273148348
-3.656729881	-4.91895243	1.247902265
-3.443768435	-5.006975152	1.177607796
-4.177410397	-5.204951024	1.171282169
-4.123286775	-5.5435226	1.144495175
-4.295482501	-4.965671948	0.969896833
-4.712534763	-5.867715621	1.037467743
-8.671986794	-11.64624952	1.860605617
-8.064500776	-11.69322926	1.684229972
-4.895806289	-5.659659402	0.827756982
-9.384696817	-11.67764621	1.507747268
-8.777051018	-11.77833358	1.340419844
-3.917300849	-4.853940897	1.578090007
-3.662895596	-4.899546429	1.484811064
-3.507737471	-5.073995811	1.43430621
-4.143900098	-4.760337725	1.415026466
-3.811904039	-4.721150595	1.296976736
-3.773358242	-5.043447162	1.282416573
-3.462466493	-5.001229324	1.178749226
-4.183865927	-4.806248559	1.182625455
-4.169223861	-5.162226945	1.164540764
-4.172791488	-5.574284514	1.153483794
-4.451637086	-5.114393984	1.001608114
-4.718060599	-5.837821172	1.034736538
-8.730873842	-11.65054529	1.865562576
-8.109397802	-11.68148444	1.686113837
-4.842669699	-5.563643314	0.815883141
-9.411093776	-11.63719452	1.506245231
-4.143777001	-4.727979175	1.658713882
-3.938896716	-4.850178035	1.580787953
-3.691932213	-4.906922489	1.490471955
-3.528851145	-5.071205235	1.43657095
-4.164271373	-4.754208174	1.416995445
-4.036034485	-4.967485149	1.368043951
-3.856597155	-5.121869084	1.305359593
-3.477232389	-4.989777372	1.178558967
-4.199887299	-4.794869375	1.182990473
-4.173860342	-5.135653474	1.161429284
-4.112107598	-5.458233197	1.132074639
-4.397566522	-5.021083596	0.98597167
-4.287792955	-5.272267072	0.936820949
-8.838844482	-11.7195261	1.880941529
-8.161124886	-11.67934237	1.689410808
-4.809946469	-5.491933634	0.807527523
-9.488829811	-11.65997254	1.51295433
-4.241471648	-5.190135243	1.695821338
-3.719875083	-4.912617358	1.495661137
-3.540481315	-5.054770614	1.434985586
-4.173676294	-4.73555363	1.415245216
-4.136056528	-5.058799112	1.396679812
-3.88886372	-5.131880761	1.31094574
-3.495907	-4.983908409	1.179700514
-4.217828378	-4.785649876	1.183902783
-4.160289678	-5.086989213	1.153305049
-4.168172882	-5.497476932	1.142860935
-4.404447165	-4.997919861	0.984071949
-9.502565271	-11.6113905	2.068380382
-8.869960306	-11.68603286	1.879924792
-8.196917834	-11.65424936	1.689410807
-4.83531628	-5.48684536	0.808956783
-9.563641813	-11.67853355	1.51916275
-4.022770014	-4.891811214	1.602372105
-3.792652672	-4.976929488	1.518776534
-3.589646505	-5.091648472	1.448574489
-4.187537696	-4.721996552	1.415026466
-4.283273452	-5.206183041	1.440992404
-3.908749333	-5.125380192	1.312342277
-3.491929298	-4.945891748	1.173232218
-4.236404571	-4.777100898	1.184997717
-4.114540538	-4.999670748	1.136364935
-3.971092866	-5.61561917	1.072737779
-4.434855865	-5.001407612	0.987433055
-4.694761665	-5.700855943	1.018075848
-8.907577218	-11.66112953	1.880306024
-8.273946558	-11.68740315	1.697888378
-4.863996749	-5.485371131	0.810935776
-9.608284269	-11.65988803	1.520564651
-4.060008738	-4.906334423	1.611201936
-3.695541406	-4.81875669	1.473960993
-3.582139925	-5.048044009	1.439288801
-4.202004645	-4.709127147	1.415026465
-4.054143708	-4.896984059	1.358847071
-3.9304213	-5.121137593	1.314337363
-3.546894481	-4.99117299	1.186549207
-4.254313629	-4.767749017	1.185910027
-4.367323811	-5.273773991	1.201705095
-4.12131082	-5.366947119	1.120961354
-3.999188716	-5.618703718	1.075665797
-4.454789388	-4.992945431	0.988455991
-4.74067342	-5.720750491	1.024221205
-8.93545225	-11.62352436	1.878653783
-6.578082665	-9.231714178	1.344063523
-4.882125746	-5.471905971	0.811155657
-9.664969656	-11.65562978	1.523869132
-4.078764216	-4.898325272	1.612673575
-3.708526475	-4.805088098	1.473253366
-3.598742544	-5.038615592	1.439741679
-4.164281249	-4.638128033	1.397524634
-4.092933436	-4.913074434	1.366789867
-3.573545486	-4.626688421	1.190245381
-3.479946554	-4.865283222	1.159154196
-4.270234727	-4.756137959	1.186275045
-4.109199847	-4.931200065	1.126512165
-3.98513267	-5.156780692	1.079613732
-4.038849159	-5.637733402	1.081675972
-10.48857787	-11.68328676	2.319305876
-4.665575762	-5.595099204	1.004282976
-8.98563743	-11.61488435	1.881704111
-4.904866214	-5.4635588	0.812145095
-9.738292794	-11.67099732	1.529777145
-4.062641366	-4.848634449	1.600409918
-3.736364913	-4.81057275	1.478442547
-3.610772618	-5.022805827	1.438382812
-4.205964082	-4.655741069	1.406713049
-4.096679373	-4.887004885	1.363027387
-3.706792835	-4.768889476	1.229747288
-3.384154837	-4.700811781	1.12243714
-4.279533484	-4.737177967	1.184815209
-4.350238486	-5.188008183	1.188222284
-3.965806713	-5.099362036	1.070134923
-4.035322794	-5.596463871	1.076128091
-10.5336564	-11.66133074	2.321351747
-4.245266535	-5.059412432	0.910464311
-9.031588201	-11.60056728	1.88386478
-4.93826159	-5.466924749	0.814893703
-9.793886117	-11.66468702	1.532881355
-9.02183583	-11.57928345	1.339510994
-4.175452124	-4.590819313	1.637284818
-4.171233291	-4.947323525	1.637200887
-3.822322048	-4.890199043	1.506511209
-3.638726519	-5.029065203	1.443365403
-4.250419221	-4.676030181	1.416776697
-4.12048054	-4.884878386	1.365953735
-4.106587518	-5.249915421	1.357031337
-3.400864838	-4.693587099	1.123198171
-4.290078672	-4.719660959	1.18372039
-4.336281727	-5.13925677	1.180097934
-3.977784532	-5.0825095	1.069154308
-4.059437587	-5.593653343	1.077977385
-10.59865908	-11.66117008	2.327781657
-4.217950229	-4.995651035	0.90131464
-9.129532253	-11.65244393	1.896828908
-4.956347619	-5.453219539	0.815113585
-9.852101043	-11.66118636	1.536386108
-9.22138205	-11.76079431	1.363774852
-4.179492886	-4.92637139	1.634502941
-3.84271421	-4.885323716	1.508634088
-3.666752746	-5.035199812	1.448347993
-4.287794248	-4.688169262	1.424433748
-4.134182229	-4.87072282	1.365535669
-3.768713592	-4.787633144	1.240520587
-3.411777791	-4.678372224	1.122056625
-4.127637545	-4.86163603	1.119252082
-3.988475276	-5.064081633	1.067846938
-10.68178537	-11.68043107	2.338157157
-4.248008828	-5.000050762	0.904455566
-9.144357778	-11.59789735	1.892507571
-10.69401238	-11.69380118	1.752813022
-9.907808714	-11.65440613	1.539490318
-9.253718562	-11.72775721	1.363229589
-4.199622791	-4.919424057	1.636465126
-3.849843276	-4.863605674	1.505567785
-3.672394669	-5.010571424	1.444497771
-4.262511898	-4.631911359	1.411307256
-4.136404002	-4.843143912	1.361355237
-3.781558776	-4.773743872	1.239922037
-3.426695563	-4.668674521	1.122246883
-4.144452885	-4.851196791	1.119770644
-3.989898597	-5.034038632	1.064088031
-10.75173282	-11.68473185	2.345610122
-4.269122388	-4.993771358	0.905684615
-9.194693274	-11.58843683	1.895557899
-10.77358464	-11.70847939	1.759959262
-9.967448332	-11.651929	1.543195343
-9.271696468	-11.67669487	1.360594229
-4.167585586	-4.498289132	1.617896618
-4.312609046	-5.020502355	1.67448252
-3.923477677	-4.925502575	1.528447269
-3.722441672	-5.046311254	1.458086677
-4.246206468	-4.585877378	1.401243727
-4.135308373	-4.81188963	1.356129698
-3.926289394	-4.925326762	1.282416573
-3.422919984	-4.633660273	1.11634936
-4.419996196	-5.141702466	1.189950819
-3.984408645	-4.995550982	1.058531449
-10.87826081	-11.7496902	2.365338306
-4.246307757	-4.936341264	0.897627437
-9.340366558	-11.69814568	1.918181558
-10.8020266	-11.66734866	1.758749883
-9.997956027	-11.6152618	1.542394256
-9.34850646	-11.69954243	1.366592006
-4.182685323	-4.48689666	1.618406835
-4.295025776	-4.969108247	1.661728316
-3.908787906	-4.876287959	1.516889569
-3.750679198	-5.052072484	1.463069268
-4.225002943	-4.534989256	1.389648715
-3.983742422	-4.606857394	1.301784208
-3.678336423	-4.585350745	1.19682907
-3.473435532	-4.671984212	1.128144522
-3.9910708	-4.972532066	1.056243348
-4.177343115	-5.609985109	1.090922322
-10.90279428	-11.7039547	2.362853984
-4.267266746	-4.930032026	0.898856485
-9.404168729	-11.70422938	1.923901099
-8.720897137	-11.6989819	1.730150702
-10.86893501	-11.66760842	1.763807219
-10.08826192	-11.64770941	1.550805664
-9.414310028	-11.70805927	1.370954112
-4.292437069	-4.935425859	1.654860669
-3.901765109	-4.837043643	1.508398174
-3.7440071	-5.010891157	1.454462952
-4.257581865	-4.541939154	1.395774405
-3.628374727	-4.494747342	1.176080573
-3.530099766	-4.717901942	1.141842028
-3.996389152	-4.947984539	1.053628492
-10.89805853	-11.62714378	2.354085902
-4.316204104	-4.95576207	0.905957782
-9.415086724	-11.64447059	1.918817062
-8.754363714	-11.6689936	1.729679705
-10.96721359	-11.70092547	1.773922007
-10.14879025	-11.64520782	1.554610824
-9.477121842	-11.71241061	1.374861792
-4.338841898	-4.957981244	1.666878992
-3.83206912	-4.72092853	1.475847955
-3.805608422	-5.060881238	1.472355074
-4.263462189	-4.520337521	1.39314906
-3.622994601	-4.460016976	1.169895879
-3.530383841	-4.688227313	1.137276191
-4.022750719	-4.949480563	1.056570218
-11.13594134	-11.80812541	2.397634011
-4.37905029	-4.996883563	0.915926838
-4.791426888	-5.888935949	0.972817499
-8.772171798	-11.61830596	1.726147297
-11.10330441	-11.77351871	1.790083567
-10.17856543	-11.60728495	1.553709603
-9.517411618	-11.68868591	1.375497893
-4.291886729	-4.874071365	1.643087442
-3.93198593	-4.813764045	1.508634086
-3.745881971	-4.94976679	1.443365401
-4.26857814	-4.498034982	1.390305082
-4.128110544	-4.685934548	1.334809592
-3.55245902	-4.687545963	1.139749309
-4.209262273	-4.776707588	1.117350694
-4.043537986	-4.943988664	1.05804114
-11.13466362	-11.734436	2.38959668
-4.427119267	-5.020576274	0.922754968
-4.797532499	-5.859626812	0.970402617
-8.866052465	-11.66803371	1.737568619
-9.572793223	-11.68331195	1.378315048
-4.313249393	-4.868137316	1.645540175
-3.928223952	-4.779156354	1.501557943
-3.740984764	-4.91190611	1.435665078
-4.272250215	-4.474332026	1.38702349
-4.135980169	-4.665929771	1.332719376
-3.660874833	-4.450567516	1.1732875
-3.577540062	-4.690676126	1.143173715
-4.229778093	-4.770404061	1.118906375
-4.091913553	-4.971932708	1.066702887
-3.880603183	-5.080124492	0.997071349
-11.24712302	-11.78035839	2.405963876
-4.395821053	-4.954359051	0.91305902
-4.775752127	-5.796651675	0.962395388
-8.889139878	-11.62421285	1.73509598
-9.620629288	-11.66848626	1.380041675
-4.299133425	-4.822317813	1.634502942
-3.950919676	-4.776817295	1.504624246
-3.741815915	-4.881852353	1.430229492
-4.678047649	-4.869326466	1.513912003
-4.154181376	-4.65759758	1.333973459
-3.690756821	-4.458941673	1.178474538
-3.875250248	-5.048818857	1.233349222
-4.114069684	-4.967713729	1.068500565
-3.890750813	-5.061145422	0.995684351
-11.3428359	-11.80786539	2.418677549
-4.458501218	-4.994056514	0.922891522
-4.780219666	-5.765937085	0.959726293
-8.977451834	-11.66535405	1.745339755
-9.678637195	-11.66574088	1.383222298
-4.290603558	-4.78312594	1.62567311
-3.95498768	-4.751975439	1.500614402
-4.094677226	-5.308411319	1.55887086
-4.684148258	-4.845831012	1.511068026
-4.186739644	-4.665209465	1.33982604
-3.694385272	-4.435550484	1.17528247
-3.705277727	-4.796831421	1.174563905
