x	y	z
-5.09211174	17.35857781	0.326817037
-5.838994616	17.52308029	0.16022074
-3.82809279	17.76420899	0.012369287
-4.477523075	17.63161907	-0.163198102
-5.072780377	17.31729281	-0.329468576
-5.818355764	17.49677232	-0.514398915
-4.423399383	17.45168402	-0.815332201
-4.485701819	17.75182828	5.380535352
-5.116703613	17.44441691	5.147318599
-5.987298525	17.90122256	5.150422084
-4.514031506	17.863942	4.661669071
-5.106017881	17.4564823	4.414570923
-4.519401598	17.90229285	3.946529916
-5.093561465	17.4376143	3.69861876
-4.435429718	17.5800041	3.181960221
-5.092621492	17.45137141	3.011511135
-5.765267109	17.38451806	2.856678572
-3.717805372	17.41736234	2.630865316
-4.380863693	17.38803749	2.471923615
-5.066317586	17.39509663	2.321594496
-3.634530108	17.02722863	1.925862472
-4.38632521	17.43283129	1.809156513
-5.07102675	17.43506523	1.656940654
-5.04189618	17.38468265	0.32701573
-5.777690063	17.51811943	0.160012556
-3.772536613	17.77097919	0.012365883
-4.430217363	17.67243247	-0.163449291
-5.022130944	17.34141799	-0.329632876
-5.750273383	17.47086336	-0.513116104
-4.440738496	17.80367313	5.392094836
-5.072004161	17.49052897	5.156308888
-5.920222523	17.88287293	5.139893041
-3.718412442	17.71652294	4.776136817
-4.47680123	17.94825452	4.680064496
-5.041639885	17.43472427	4.405136223
-4.468713054	17.93315299	3.950292161
-5.03514613	17.43621251	3.695027698
-4.41289251	17.71968919	3.204777357
-5.03386152	17.44890267	3.008406207
-5.706358905	17.38522437	2.853904807
-3.66272377	17.42094154	2.629696113
-4.325106381	17.39178155	2.470557952
-5.012377523	17.40865108	2.321340341
-3.581865312	17.03635396	1.925642649
-4.323948032	17.41047675	1.805451487
-5.01668747	17.44766946	1.656668022
-4.976412688	17.3577798	0.326220961
-5.710575693	17.49488751	0.159639565
-3.714723858	17.76680831	0.012354992
-4.384144143	17.71894449	-0.163754303
-4.965877637	17.34617158	-0.329432068
-5.687048981	17.4589576	-0.512251657
-4.377381982	17.78181172	5.381381258
-5.00559326	17.46161106	5.143232107
-5.848208826	17.8486955	5.124888408
-4.412214659	17.92330781	4.670008473
-4.988928565	17.45291315	4.405843849
-5.845362119	17.90758609	4.380148478
-4.407134839	17.92018932	3.944439699
-4.977863193	17.43838642	3.692234625
-4.383662749	17.835488	3.223273155
-4.967589838	17.41967327	3.000724838
-5.647500259	17.38573554	2.851130809
-3.607053559	17.42143984	2.628088693
-4.268895458	17.39342506	2.468919302
-4.958401611	17.42203902	2.321086186
-3.530790582	17.05310242	1.926302235
-4.266960408	17.40916544	1.803949451
-4.946255804	17.40358865	1.651033716
-4.927497768	17.38835627	0.326509954
-5.657797391	17.51517882	0.159665583
-3.657577058	17.76538921	0.012346144
-4.332846076	17.74493862	-0.163870919
-4.904197832	17.33150018	-0.328866152
-5.618431516	17.42970584	-0.510885162
-4.335264117	17.84643462	5.396887528
-4.943866706	17.44818785	5.134786842
-5.79133895	17.8601298	5.123045908
-4.348280734	17.90001992	4.660442644
-4.930075961	17.44943396	4.401126027
-5.796981772	17.94582542	4.385130949
-4.35236619	17.93457646	3.944648555
-4.917421588	17.42905653	3.687047353
-5.761060404	17.87621296	3.63954999
-4.323119899	17.82492249	3.218951817
-4.909038534	17.4167895	2.997619674
-5.595949093	17.40862315	2.852055395
-3.549636502	17.4130379	2.625165921
-4.208517786	17.37755475	2.464822316
-4.899288159	17.41711776	2.318417091
-3.478257252	17.0628809	1.926192324
-4.206513185	17.39316127	1.800945376
-4.881258554	17.37745352	1.647126034
-4.863611975	17.36584304	0.325805487
-5.590334372	17.4895921	0.159275247
-3.599282077	17.75790422	0.012333212
-4.277213901	17.75328924	-0.163826067
-4.84777125	17.3349099	-0.328647105
-5.584068552	17.50685686	-0.512642068
-4.26640364	17.8008713	5.379125343
-4.886421561	17.44937433	5.130700346
-5.739759997	17.88791709	5.125941737
-3.483036756	17.38972621	4.679195825
-4.293344091	17.91327625	4.660442645
-4.873904986	17.45511709	4.398767588
-5.725883424	17.91342739	4.372901031
-4.26521633	17.81374918	3.91517668
-4.871032751	17.46954602	3.692433945
-5.702908799	17.88351561	3.637457391
-4.267496906	17.83427106	3.218260404
-4.853198905	17.42321493	2.99614887
-5.53203206	17.39275476	2.846661652
-3.488023317	17.38310909	2.619028311
-4.152652277	17.37978653	2.463320279
-4.843173442	17.42251089	2.317146082
-3.426088266	17.07444603	1.926302235
-4.160752403	17.43792279	1.804249858
-4.827123085	17.38946863	1.646853403
-4.818045219	17.40862734	0.326329323
-5.539063262	17.51428825	0.159344641
-3.540284998	17.74630837	0.012317555
-4.208853834	17.70795509	-0.163287807
-4.792701178	17.34295584	-0.328519312
-5.528526823	17.51818663	-0.512474698
-3.421672203	17.39014701	5.417287262
-4.21949754	17.84655687	5.388993488
-4.828245321	17.44759237	5.125796554
-5.68105847	17.89348888	5.122519479
-3.427238593	17.38799726	4.675879422
-4.227436702	17.88013574	4.648424441
-4.812576429	17.44188446	4.391691325
-5.670017577	17.92812312	4.372221538
-3.437214012	17.41137666	3.979051032
-4.217063015	17.85435169	3.921238235
-4.796851354	17.40977706	3.676673046
-5.652447092	17.91497233	3.640311024
-3.430269614	17.37619825	3.287118711
-4.20642637	17.82043716	3.213420268
-4.794224448	17.41804884	2.992716836
-5.472714068	17.39079609	2.843579616
-3.432951421	17.38499241	2.617713192
-4.100675703	17.39823023	2.464139486
-4.784181861	17.41720132	2.314476986
-3.373303483	17.08292645	1.926082412
-4.110197349	17.46319639	1.805551624
-4.761896281	17.36097873	1.642763928
-4.753009576	17.38089261	0.325534554
-5.480227561	17.51497605	0.15919718
-3.482356071	17.73942315	0.012305304
-4.144007436	17.67600046	-0.162875149
-4.733150635	17.33442827	-0.328081188
-5.469095481	17.51693688	-0.511944873
-3.372847587	17.4240364	5.424595268
-4.156009737	17.82204378	5.377715814
-4.770887693	17.4484019	5.121710061
-5.628737435	17.91911774	5.124888408
-3.374981445	17.40412435	4.677410067
-4.181808081	17.93267467	4.658725557
-4.759298204	17.45750371	4.391927356
-5.609752845	17.92870196	4.368145056
-3.381734087	17.41130371	3.976644436
-4.158273208	17.85006229	3.917475989
-4.739040621	17.40833805	3.673281541
-5.590144978	17.90880029	3.635555049
-3.382005451	17.41270188	3.292045397
-4.126720887	17.72581886	3.194060204
-4.73921049	17.42696223	2.991736219
-5.409348146	17.37542818	2.83833989
-3.370920121	17.3507729	2.610990981
-4.044587682	17.39915057	2.462500835
-4.729165565	17.42605326	2.313714522
-5.356206847	17.23652588	2.140140059
-3.319361452	17.08539056	1.925202769
-4.047602479	17.43695577	1.801546191
-4.709392818	17.37839053	1.643036561
-4.699923846	17.39635687	0.325552614
-5.424396828	17.52501883	0.159136457
-3.424502758	17.73235048	0.012293051
-4.089307977	17.68668217	-0.162857208
-4.680207525	17.34983357	-0.328099457
-5.410314011	17.51739745	-0.511470778
-3.318659999	17.43054332	5.423426061
-4.101312736	17.83471005	5.377715813
-4.713570478	17.44902392	5.117623568
-5.562284312	17.89945219	5.114359366
-3.321570378	17.41439721	4.677410068
-4.113735522	17.88873171	4.644009406
-4.697629913	17.44199635	4.384379502
-5.549538115	17.92907994	4.364068574
-3.3279348	17.41967977	3.976206701
-4.101958021	17.85606437	3.916012815
-4.682810966	17.41238592	3.671086898
-5.525906366	17.89584895	3.629467268
-3.327645662	17.41816667	3.291132969
-4.098104527	17.85071295	3.214284537
-4.682395411	17.42903531	2.989611673
-5.358051386	17.39855189	2.839418734
-3.322872098	17.38824055	2.615082722
-3.989196636	17.40278644	2.461271787
-4.624824649	17.25078447	2.288548726
-5.325183655	17.32406794	2.148971082
-3.264876331	17.0847547	1.923993509
-3.974773095	17.36491154	1.792834377
-4.656311798	17.39371896	1.643127517
-4.650397598	17.42518537	0.325823547
-5.349528315	17.47273652	0.15851192
-3.364672981	17.71428143	0.012273312
-4.03524923	17.70012137	-0.162866179
-4.62875919	17.37087454	-0.328227249
-5.318871042	17.41059009	-0.507873399
-3.264464321	17.43688371	5.422256858
-4.048486671	17.85563074	5.38025354
-4.650340834	17.42714625	5.106998682
-5.507343392	17.91643191	5.114359364
-3.267236885	17.41975427	4.676134529
-4.060335071	17.90788707	4.645726023
-4.641098468	17.44505644	4.381548996
-5.48823279	17.92553199	4.359085628
-3.273215236	17.42309426	3.974675574
-4.048885158	17.87619363	3.917684844
-4.627104286	17.41814793	3.669291369
-5.478432804	17.93713058	3.634413502
-3.272013456	17.41669771	3.288943331
-4.627383609	17.43759662	2.988631056
-5.298602078	17.39505989	2.836182441
-3.262749866	17.36237987	2.609675627
-3.933821636	17.40624628	2.460042738
-4.60793317	17.40104803	2.306596775
-5.216259031	17.15695359	2.126246215
-3.208590698	17.07417721	1.921684664
-3.919946532	17.37023075	1.792133308
-4.614891717	17.45317335	1.647398667
-4.628007557	17.55732106	0.32802725
-5.262280088	17.37804758	0.157505719
-3.30241613	17.68225198	0.012244042
-3.977418536	17.69680779	-0.162722651
-4.555849731	17.31054176	-0.326821593
-5.237964678	17.335921	-0.505224151
-3.20714513	17.42612414	5.415825756
-3.979874731	17.80616778	5.361645444
-4.605190346	17.47296361	5.116261241
-5.295759481	17.41820184	4.967474925
-3.212726499	17.42399115	4.674603882
-4.00748996	17.92971978	4.648178871
-4.584839177	17.44887508	4.378954525
-5.267226517	17.3941438	4.225915019
-3.215670431	17.4109862	3.969643516
-3.989547917	17.86849029	3.913295559
-4.575136365	17.43794935	3.670488469
-5.264967863	17.42944808	3.528257629
-3.21695705	17.41795191	3.287301103
-4.557356562	17.3887252	2.97784476
-5.244354991	17.40839586	2.835720147
-3.211983674	17.38592662	2.611721733
-3.881478677	17.42306846	2.460725569
-4.550510412	17.3997493	2.304563302
-5.18275615	17.23659237	2.13413501
-3.154025989	17.07221087	1.920365373
-3.874846802	17.41908083	1.795938586
-4.538175552	17.37860161	1.639038042
-4.528530481	17.39630434	0.324757816
-5.196317809	17.3519616	0.157124055
-3.247249392	17.68738287	0.012240639
-3.929595292	17.7382153	-0.162991781
-4.509007888	17.34862953	-0.327277956
-5.186184893	17.35669888	-0.505363626
-3.158603565	17.4631736	5.424302967
-3.939469675	17.88294591	5.381098974
-4.548411579	17.47490564	5.112719772
-5.2409071	17.42974823	4.966158855
-3.169599893	17.49084954	4.689910353
-4.532993835	17.46944347	4.380605338
-5.213557587	17.4092886	4.225688522
-3.162413355	17.42172952	3.969862383
-4.51940416	17.44336499	3.668692936
-5.20978417	17.43987337	3.52711608
-3.160168069	17.40935982	3.283834022
-4.494594011	17.36633294	2.971634435
-5.185843952	17.40735747	2.832946146
-3.154210854	17.37136592	2.608068209
-3.82524527	17.4223158	2.458950067
-4.491650821	17.3924991	2.301767129
-5.104378057	17.16674595	2.12353802
-3.100568991	17.07593934	1.91970567
-3.816699925	17.40950639	1.793735599
-4.537056077	17.59494959	1.658122018
-4.525417776	17.60572281	0.328406604
-5.139367205	17.35535885	0.157011284
-3.19332507	17.69923094	0.012242001
-3.877076227	17.75898094	-0.163072515
-4.529577344	17.65001097	-0.332699744
-5.122714415	17.33801699	-0.504359705
-3.863623274	17.79837511	5.352059114
-5.187133714	17.4448207	4.965895641
-3.137279852	17.62043624	4.722053947
-4.478170991	17.47856148	4.379426119
-5.158462827	17.41959768	4.224329536
-4.473152785	17.48562812	3.674678196
-5.152639169	17.44353462	3.524642963
-3.095866051	17.357993	3.272337955
-4.435676066	17.35805641	2.967875528
-5.132414965	17.4231871	2.832946148
-3.099511498	17.37316973	2.606899241
-3.766539523	17.40976373	2.455536151
-4.434104312	17.3898584	2.299606342
-5.011632299	17.0460853	2.106700423
-3.050086279	17.09613534	1.920915048
-3.763270455	17.42113349	1.793735599
-4.490179661	17.63677462	1.660757379
-3.150737092	17.70497145	1.326594696
-4.480974139	17.65732098	0.329111042
-5.080759033	17.35281035	0.156846477
-3.135693349	17.69023497	0.012229067
-3.821732916	17.76688099	-0.163036633
-4.48252783	17.69193143	-0.333229152
-5.065293494	17.3392587	-0.503941399
-3.813214276	17.82984682	5.357979999
-4.527003843	17.84102584	5.211612459
-5.133045051	17.45880157	4.965369213
-3.127347317	17.88237903	4.789657535
-4.506501737	17.81630553	4.460565686
-5.100343406	17.41945199	4.220479081
-4.51810258	17.88974715	3.756674638
-5.096071532	17.44889474	3.522550363
-4.380711922	17.36488552	2.966731593
-5.078936782	17.43885023	2.832946147
-3.044318385	17.37187929	2.605291587
-3.707120962	17.39314084	2.451575781
-4.377826536	17.39183675	2.298081177
-4.991464891	17.17199466	2.120358945
-2.997793261	17.10639161	1.92102496
-3.70545629	17.4121607	1.791632629
-4.442360882	17.67557787	1.663120225
-3.094515299	17.70374923	1.325785385
-4.433341279	17.69717125	0.329598757
-5.023048667	17.35294684	0.156707687
-3.074202117	17.65839418	0.012200479
-3.763683136	17.76189256	-0.16288412
-4.420708153	17.67553035	-0.332663236
-5.006248862	17.33454894	-0.503355783
-2.982396669	17.40195902	5.396533878
-3.761461834	17.85554441	5.362209068
-4.465233606	17.82683182	5.203439474
-5.072456999	17.45038003	4.958525167
-3.065924235	17.85377102	4.77945322
-5.04823109	17.43969527	4.221611568
-4.470307405	17.9320473	3.762659659
-5.035706757	17.44086851	3.517794154
-4.325271285	17.36962934	2.965260791
-5.021037278	17.43915863	2.830480422
-2.991511129	17.38406184	2.605730038
-3.649874926	17.38601219	2.448981072
-4.32373111	17.40229844	2.297699946
-2.947826019	17.13020099	1.922674101
-3.63181166	17.32703838	1.781719184
-4.408732646	17.77224952	1.670935469
-3.038836627	17.70529596	1.325196848
-4.388385727	17.74854328	0.330303224
-4.970062244	17.36923802	0.15671636
-3.02102359	17.67365675	0.012204563
-3.706108576	17.75867172	-0.162749562
-4.375085549	17.7239557	-0.333320407
-4.947555576	17.33060346	-0.502798004
-2.936133415	17.45346578	5.409687433
-3.696724445	17.81909045	5.347830046
-4.414677473	17.85725964	5.208343266
-5.016764544	17.4584431	4.956419454
-3.017885488	17.90313867	4.790167751
-4.98184122	17.41015235	4.210740633
-4.416676085	17.95138812	3.76385676
-4.972475616	17.4222502	3.510945342
-4.26513366	17.355034	2.960521268
-4.962372357	17.43642424	2.827552403
-2.938163614	17.39315776	2.605730038
-3.595314961	17.39130747	2.448161628
-4.260400163	17.37502078	2.292361754
-4.855074785	17.09339981	2.10693598
-2.891946236	17.11956312	1.920475285
-3.602167706	17.45210726	1.79343519
-4.354897817	17.78859265	1.6712081
-2.980692468	17.69191717	1.323504792
-4.333439345	17.75998062	0.330267103
-4.91239653	17.36900911	0.156577585
-2.966290815	17.6798837	0.012202521
-3.64556981	17.74057303	-0.162480432
-4.319032467	17.73049513	-0.333192644
-4.898977816	17.36205402	-0.503272099
-2.878367641	17.43691585	5.401795301
-3.640694852	17.82376789	5.345856891
-4.360327474	17.8725883	5.208888288
-4.953689593	17.44034247	4.946942793
-2.956317905	17.87224835	4.779453222
-4.332690216	17.81736726	4.450659389
-4.926283558	17.41785555	4.208928651
-4.342161529	17.88486527	3.747098317
-4.920867284	17.44403658	3.512277146
-4.210473798	17.36228488	2.959540653
-4.897350626	17.41066759	2.820925797
-2.884303015	17.39916134	2.605291585
-3.540163999	17.39351803	2.446932579
-4.202175524	17.36776401	2.289692658
-4.816298064	17.15697534	2.112940792
-2.837784969	17.1185492	1.919375818
-3.540881362	17.42505121	1.789529777
-4.29749658	17.79025247	1.670117573
-2.926075227	17.69900944	1.323357687
-4.27776183	17.76833132	0.330176773
-4.858816741	17.38303517	0.156568913
-2.911386132	17.68495427	0.012199798
-3.588547767	17.73893423	-0.162363816
-4.259008141	17.72032947	-0.33275452
-4.838438986	17.35100448	-0.502519173
-2.842284349	17.55328275	5.43511811
-3.58221268	17.81604126	5.340217817
-4.295791605	17.84565715	5.197173829
-4.895466833	17.43873981	4.942204937
-4.284128001	17.85609016	4.457027552
-4.88095157	17.46196755	4.215949602
-4.274031675	17.84283222	3.735527147
-4.851508115	17.4023115	3.500862381
-4.154203025	17.36264586	2.957416102
-4.836767673	17.39990786	2.816764916
-2.829480391	17.39914098	2.603976468
-3.486201119	17.40138335	2.446522975
-4.148412022	17.37864559	2.289438504
-2.780466554	17.09774412	1.916077654
-3.492674226	17.46217499	1.792233444
-4.238278929	17.78397908	1.668300108
-2.869686054	17.69510532	1.32240127
-4.221612099	17.77456243	0.330050351
-4.799872907	17.37761718	0.156386746
-2.855999836	17.68689247	0.012195033
-3.53078905	17.73318839	-0.162211303
-4.19193602	17.67980592	-0.33175048
-4.776420909	17.33396532	-0.501598877
-3.444660921	17.40811989	5.214754805
-4.248580497	17.89058097	5.206436391
-4.83781617	17.43880358	4.937993038
-2.836724156	17.82798311	4.76287121
-3.44582824	17.41401903	4.491204075
-4.238727055	17.90886773	4.466934321
-4.811537291	17.41959024	4.202134201
-3.435498066	17.3825252	3.787255576
-4.217693372	17.84918613	3.734130494
-4.790534495	17.38966529	3.495345374
-3.43945048	17.41530697	3.115410204
-4.100689175	17.37434929	2.957252785
-4.782577574	17.41180687	2.816302623
-2.774996782	17.40090156	2.602953415
-3.407887873	17.28564812	2.428769851
-4.073705208	17.30053545	2.277491112
-2.72784187	17.10521114	1.915967624
-3.439084586	17.47280709	1.792233443
-4.182787129	17.79302117	1.667936639
-2.813505245	17.69200749	1.321518407
-4.164779864	17.77769547	0.329869719
-4.749695631	17.40383773	0.156490845
-2.800629026	17.68865849	0.012190268
-3.474060812	17.73216081	-0.162103657
-4.131755474	17.66727026	-0.331275848
-4.726107172	17.35914669	-0.501905662
-2.721290284	17.48534802	5.408810531
-3.394171071	17.43367533	5.219265688
-4.17984814	17.84451222	5.189273116
-4.780721384	17.44053759	4.934307564
-2.79035975	17.89010106	4.777157249
-3.38997802	17.41213828	4.488015466
-4.177135898	17.89339789	4.459858059
-4.757559073	17.43239003	4.201681205
-3.381406446	17.38914486	3.786419681
-4.161133657	17.85440651	3.732534518
-4.736645616	17.40238623	3.494964859
-3.379617352	17.39290385	3.109532949
-4.043787242	17.3714743	2.954637811
-4.728360187	17.42353746	2.81584033
-2.718236972	17.38783006	2.599738577
-3.372005773	17.38451959	2.441196944
-4.023750372	17.32647826	2.27927043
-2.674583218	17.1085902	1.91541795
-3.375059162	17.42955033	1.786725974
-4.125929988	17.79606792	1.667027787
-2.757523977	17.68971786	1.320709214
-4.105492715	17.7699313	0.329490395
-4.68664746	17.38260481	0.156169889
-2.745581015	17.69222644	0.012186865
-3.417750556	17.73291607	-0.162013952
-4.076185784	17.67401737	-0.331166324
-4.671010182	17.36680851	-0.501710457
-2.667056344	17.48983194	5.407641324
-3.338864708	17.43458344	5.216446625
-4.131146111	17.8835011	5.196901081
-4.726435529	17.45232846	4.93351792
-2.735460647	17.89857808	4.77715725
-3.335266034	17.4157921	4.486298378
-4.120911854	17.90044563	4.458442804
-4.693405509	17.40740467	4.192169253
-3.331531996	17.41768512	3.790391017
-4.111824567	17.89096407	3.737521998
-4.685782633	17.4263161	3.496867437
-3.318844645	17.36449395	3.102618573
-3.988486842	17.37514478	2.953167006
-4.671812863	17.42650895	2.813990917
-2.663980297	17.39022092	2.598861675
-3.319026463	17.39672824	2.441470169
-3.959282367	17.28943225	2.272788543
-2.621630908	17.11376736	1.915088098
-3.323431772	17.44959794	1.787727333
-4.070425002	17.80475988	1.666664318
-2.702788183	17.69513721	1.32048844
-4.04695881	17.76489601	0.329165252
-4.656715045	17.48483403	0.156959249
-2.689335166	17.68771435	0.012178017
-3.346756131	17.6558796	-0.161215547
-4.029924756	17.72153924	-0.331823496
-4.610007448	17.3520737	-0.500873846
-2.620590286	17.54617038	5.42254916
-3.2862482	17.44945849	5.217856155
-4.069209298	17.86513351	5.187910796
-4.665390387	17.43878724	4.925621017
-2.677529543	17.88680423	4.771799983
-3.279307611	17.41260369	4.482864671
-4.068125639	17.92248075	4.460801716
-4.635215159	17.40384016	4.187865802
-3.272475831	17.39803186	3.783911279
-4.053668072	17.88915857	3.734529603
-4.629273304	17.42922451	3.494584343
-3.26555544	17.37459288	3.102618571
-3.932984101	17.37767793	2.951532648
-4.608210613	17.40255384	2.807826841
-2.609147338	17.38852952	2.597400408
-3.263081017	17.39319882	2.439558292
-3.904473004	17.29375609	2.271771687
-2.570294101	17.12959463	1.915967625
-3.269332005	17.45677806	1.787426925
-4.011402697	17.79773475	1.664846854
-2.647897155	17.6994002	1.32019423
-3.989808525	17.76552119	0.3289485
-4.582445243	17.42070566	0.156256629
-2.632995355	17.68203446	0.012168487
-3.289274819	17.64836929	-0.161054064
-3.967006922	17.6957688	-0.331111548
-4.55954127	17.37677087	-0.501180572
-2.560244172	17.50965279	5.408810529
-3.228331659	17.43587341	5.210807549
-4.008899753	17.85312445	5.180827854
-4.610142027	17.44648947	4.923778518
-2.6226411	17.89493491	4.771799984
-3.225165003	17.41877027	4.481883343
-4.016940945	17.95194824	4.465047475
-4.582790593	17.4217461	4.188771791
-2.621981677	17.85351424	4.045776766
-3.220684299	17.41664518	3.785792403
-4.57851928	17.4537903	3.496677179
-3.210445932	17.37484553	3.100890038
-3.871488537	17.35307278	2.945322321
-4.547548902	17.38888832	2.803357685
-2.554493636	17.38764249	2.596085289
-3.206290393	17.38461821	2.436963583
-3.841701729	17.26208581	2.266052265
-2.51483977	17.1177305	1.913768808
-3.21413863	17.45791898	1.786525703
-3.954189345	17.7982908	1.663756326
-2.594161948	17.71138744	1.320488439
-3.933773393	17.77084556	0.328822048
-2.578735237	17.69002783	0.012168487
-3.236196162	17.66427878	-0.161107887
-3.911188549	17.70102277	-0.330983756
-4.510721969	17.40809553	-0.501682562
-2.508544983	17.53162538	5.413195047
-3.176713666	17.45607834	5.213908896
-3.951197137	17.85218696	5.177013634
-4.559518388	17.47175398	4.926937092
-2.56045224	17.85216934	4.758279266
-3.170841922	17.42381476	4.48065692
-4.529319725	17.43572422	4.188771792
-2.569139027	17.87499509	4.04883949
-3.167935288	17.43029312	3.786628538
-4.525935027	17.47155582	3.49743821
-2.561018146	17.8184942	3.340948862
-3.159589347	17.39818037	3.103310223
-3.816960583	17.35908765	2.944341706
-4.485532372	17.36927513	2.797963942
-2.497758029	17.3718967	2.592577914
-3.148876083	17.37195343	2.433822656
-3.785961717	17.26119388	2.264400022
-2.461038363	17.11651077	1.912779371
-3.156134556	17.44322075	1.784022308
-3.897649355	17.80158336	1.662938432
-4.505183507	17.5186032	1.479209505
-2.538962819	17.7133396	1.320047007
-3.876464457	17.77013073	0.328587236
-4.522423423	17.63156244	0.157896055
-2.523179997	17.68894744	0.01216236
-3.181633367	17.67215592	-0.161089946
-3.85856577	17.72075489	-0.331129787
-4.493219306	17.56227389	-0.505726141
-2.448384508	17.49377914	5.399164591
-3.130237178	17.50540982	5.225750196
-3.888002127	17.82568279	5.1658442
-2.507148243	17.87047461	4.761085454
-4.473628095	17.44104623	4.186733786
-2.509939857	17.85187204	4.041839041
-3.118570875	17.46303307	3.7916451
-4.563052298	17.84012606	3.568398971
-2.500590217	17.78537425	3.333284895
-3.103602479	17.39324777	3.100717185
-3.758463021	17.34661214	2.940256164
-4.433199324	17.3867841	2.798580254
-2.447343576	17.40005182	2.595646839
-3.095043783	17.37860575	2.433412814
-3.732358718	17.26982098	2.264018555
-2.406714305	17.1111859	1.911350052
-3.098947554	17.43224896	1.781919455
-3.840706262	17.80274869	1.661938743
-4.498508233	17.71781902	1.494858228
-2.481837704	17.70129321	1.318575607
-3.819406877	17.77020883	0.328370454
-4.480582945	17.693821	0.158329768
-3.126704373	17.6778963	-0.161054064
-3.806488073	17.74326167	-0.331330595
-4.455229204	17.63897139	-0.507538778
-2.389257526	17.46141213	5.386887937
-3.132453389	17.83338339	5.320763813
-3.828847885	17.81683055	5.159850357
-4.52596775	17.78923565	5.008539664
-2.449813968	17.85988108	4.756238404
-4.524109842	17.86542169	4.285253114
-2.456355162	17.8681886	4.043807902
-4.513585825	17.8749841	3.572584411
-2.454449713	17.85432745	3.344780962
-3.703990972	17.35227115	2.939275548
-4.377906895	17.39263862	2.797347393
-2.389232209	17.3731756	2.590532044
-3.040176277	17.37923795	2.432183768
-3.680597552	17.28700964	2.264781254
-2.353935871	17.11652068	1.911130231
-3.04408228	17.43383271	1.781118368
-3.781101521	17.7910694	1.659757808
-4.44606791	17.73927131	1.495510184
-2.425352224	17.69301523	1.317398534
-3.762178408	17.76912673	0.328135641
-4.432583037	17.73270828	0.158555297
-3.070400904	17.67558334	-0.160946418
-3.750587634	17.74801052	-0.331202833
-4.406171105	17.67292658	-0.508124394
-2.342139157	17.51700385	5.401795302
-3.080825148	17.86087458	5.326121078
-3.777954893	17.84637838	5.165026899
-4.490169994	17.87789104	5.029598224
-2.390641433	17.83472821	4.747564734
-2.405032768	17.90175278	4.049714488
-4.463236106	17.90684514	3.576198836
-2.402934729	17.8861345	3.349342862
-3.652158274	17.37031213	2.940419481
-4.320238245	17.38872696	2.794573629
-2.335525577	17.37748209	2.590093593
-2.987178454	17.39043633	2.432456995
-3.625304991	17.28754278	2.263383169
-2.303795013	17.14139192	1.913109104
-2.99108621	17.44603225	1.781418776
-3.724257243	17.79186365	1.658758119
-4.399761006	17.78572268	1.498281323
-2.370132461	17.69345333	1.31688355
-3.706217192	17.77373564	0.32800919
-4.382949348	17.76564028	0.158728776
-3.015317902	17.67999137	-0.160901565
-3.691434261	17.7369183	-0.330782948
-4.359095558	17.71547955	-0.508961004
-2.288262991	17.52315843	5.401503
-3.022970834	17.85226863	5.320763814
-3.720828495	17.84658298	5.161757705
-4.429496929	17.86817242	5.023017393
-2.338424464	17.86115331	4.752666891
-4.424669707	17.93445439	4.295218059
-2.348956969	17.90033945	4.047745626
-4.404525387	17.90520114	3.573154947
-2.348305233	17.89537326	3.349707882
-3.598449743	17.37950246	2.940092609
-4.263105423	17.38654662	2.792107905
-2.282201082	17.38456707	2.590093594
-2.92887009	17.37021252	2.428360009
-3.574457073	17.30926794	2.264781254
-2.234894377	17.02420904	1.899256389
-2.928466612	17.40116149	1.775911307
-3.667644522	17.79345272	1.657849387
-4.344229071	17.79526441	1.497955286
-2.3127335	17.67690788	1.31511794
-3.647045478	17.76249586	0.327593746
-4.325585992	17.76734463	0.158624692
-2.960236805	17.68422721	-0.160856713
-3.635796424	17.74228407	-0.330673424
-4.306611588	17.73654189	-0.509184105
-2.229533992	17.49120171	5.389518651
-2.972118623	17.88512023	5.32781242
-3.661414743	17.83529332	5.155219313
-4.369384475	17.86012406	5.016962991
-2.285209655	17.8807133	4.755983297
-4.358106576	17.90062577	4.283894129
-2.293160536	17.90068607	4.046214499
-4.353972724	17.93675588	3.57676961
-2.289394155	17.8712863	3.343868536
-3.543536767	17.38272797	2.938785123
-4.205329676	17.38129681	2.789179886
-2.223825151	17.35223617	2.584248284
-2.877990847	17.39377709	2.430408502
-2.184549565	17.04577381	1.900905531
-2.873769898	17.40221153	1.775110221
-3.612641647	17.80266875	1.657667593
-4.28657936	17.79591163	1.496895753
-2.253563273	17.64533964	1.312248693
-3.591147059	17.76674132	0.327467295
-4.265450638	17.75719617	0.158416508
-2.903213545	17.67645197	-0.160704199
-3.578776515	17.74061311	-0.330436108
-4.248217552	17.73314577	-0.50871001
-2.1691348	17.44386547	5.372857008
-2.90689071	17.83071006	5.308922516
-3.612969237	17.87756525	5.164209601
-4.314117012	17.87157012	5.016436564
-2.229743628	17.88284148	4.754707755
-4.297025488	17.88834008	4.277779167
-4.276285978	17.85551137	3.557935497
-2.234311301	17.87627443	3.343503517
-3.490772934	17.39641856	2.939275548
-4.148314337	17.37873962	2.786714161
-2.170701523	17.35995907	2.584394435
-2.82572495	17.40937032	2.43136456
-2.139149495	17.10762508	1.907062332
-2.829754087	17.46889482	1.781018234
-3.557616643	17.8117164	1.657485918
-4.229888422	17.80025284	1.496162259
-2.194978541	17.61654417	1.30960022
-3.532720966	17.75806206	0.327106031
-4.21026089	17.76728034	0.15839049
-2.844993179	17.66059477	-0.160479937
-3.520438195	17.73189588	-0.330071
-4.18781588	17.72080174	-0.507984978
-2.124239898	17.52164119	5.394780072
-2.858534707	17.87933621	5.320763816
-3.549658121	17.8460985	5.151950116
-4.258149871	17.8800287	5.015120491
-2.125042669	17.47974527	4.645776691
-3.448063602	17.40358154	4.306306001
-4.238081909	17.88437939	4.273702212
-2.1743093	17.84080601	4.029587665
-3.432969252	17.36076858	3.603055825
-4.21742317	17.85134798	3.55451109
-2.178862409	17.8781645	3.342591325
-3.434709186	17.3934956	2.936987445
-4.094751149	17.39042405	2.786559907
-2.116952697	17.3626098	2.583809834
-2.770899138	17.40915301	2.430135513
-3.395638896	17.24314024	2.251944084
-2.085691764	17.10621481	1.906182806
-2.766001494	17.41362172	1.774509407
-3.498729053	17.80104917	1.65548654
-4.172756257	17.80247254	1.495265686
-2.143447119	17.64398446	1.311145172
-3.476878891	17.76194789	0.326979609
-4.152317733	17.76550599	0.158260373
-3.46352899	17.72985575	-0.329833684
-4.12843735	17.71214789	-0.507371467
-2.060489825	17.44354972	5.36876479
-2.798914352	17.85768934	5.311742053
-3.409324484	17.41971274	5.025814292
-4.202171602	17.88831311	5.013803948
-2.059576034	17.3863218	4.619244998
-3.39521181	17.41693829	4.307013625
-4.179868208	17.88307126	4.270305223
-2.061911855	17.36194111	3.919982116
-3.380252289	17.3741057	3.603654494
-4.157957486	17.84412465	3.550516148
-2.06347597	17.37511019	3.247338812
-3.381518891	17.40492109	2.937151001
-4.038919966	17.39231751	2.78486475
-2.06215762	17.35625161	2.581910114
-2.715032133	17.40191041	2.427950406
-3.336307247	17.22036864	2.247622747
-2.032966152	17.1105604	1.905962866
-2.712257935	17.42005846	1.774309134
-3.437293517	17.77649973	1.652215079
-4.116323457	17.80742112	1.494613729
-2.088133834	17.64057479	1.310409532
-3.415941604	17.7391494	0.326365443
-4.095099217	17.76647006	0.158156274
-3.40157083	17.70112367	-0.329103468
-4.066240559	17.69063416	-0.506395441
-1.999642896	17.38613526	5.349180609
-2.736540475	17.81688067	5.297081219
-3.357684724	17.43953917	5.028538465
-4.148142475	17.90488057	5.014857279
-2.005339551	17.38487396	4.617204135
-3.341761375	17.42727324	4.307013626
-4.130015682	17.91763979	4.275514192
-2.009196943	17.37303156	3.92107598
-3.327670056	17.38824336	3.60445248
-4.10517165	17.86540799	3.552228232
-2.009030438	17.37159187	3.245514193
-3.319216504	17.36870047	2.929306315
-3.983116276	17.39403303	2.783169594
-2.009013516	17.36347894	2.582056264
-2.654744588	17.36511292	2.421668554
-3.279561036	17.21006102	2.244953651
-1.981261849	17.12362778	1.906732481
-2.657450767	17.41944511	1.773407912
-3.361715259	17.67641113	1.641946034
-4.058792341	17.80733377	1.493554079
-2.03480269	17.65383292	1.310924516
-3.346804896	17.67193967	0.324938448
-4.038800357	17.77114911	0.158086894
-3.331466649	17.62796891	-0.32755181
-4.004877121	17.67183025	-0.505503041
-1.945761875	17.38743605	5.347719103
-2.681723478	17.82424343	5.296799407
-3.296646761	17.41005244	5.01709628
-4.086960623	17.89024703	5.007223117
-1.950376168	17.3765305	4.613377515
-3.288099484	17.43648993	4.306777595
-4.073946463	17.92547816	4.274381706
-1.956542509	17.38493211	3.922388476
-3.271770966	17.38489008	3.601659409
-4.036025367	17.81472651	3.539672158
-1.955505837	17.37571958	3.245149175
-3.266643286	17.38268072	2.929960059
-3.927122163	17.39460551	2.781320419
-1.955290932	17.36562839	2.581471662
-2.601603374	17.37415613	2.421805168
-3.245562131	17.32045943	2.258044976
-1.928495553	17.12765	1.906512658
-2.605466451	17.43735733	1.77440927
-3.313692967	17.71992437	1.64503582
-3.999552552	17.79928079	1.49184259
-1.979409265	17.6490909	1.310115204
-3.29385373	17.68900372	0.325064899
-3.983385865	17.77955269	0.158052189
-3.278647601	17.64498736	-0.327679572
-3.947808861	17.67135161	-0.505140526
-1.892098563	17.39047196	5.3468422
-2.626327802	17.82764025	5.2953894
-3.246563908	17.43805644	5.022272821
-4.021668264	17.85658521	4.994324673
-1.89642717	17.37666655	4.61184687
-3.232995175	17.43789546	4.304654715
-4.009988754	17.8979728	4.264869755
-1.903197053	17.39085257	3.922388475
-2.62924311	17.87555806	3.8618763
-3.216280066	17.38328339	3.59926521
-1.901225963	17.37284107	3.243506947
-3.215090994	17.40232144	2.931594417
-3.871162212	17.39499815	2.779471007
-1.902004693	17.37154624	2.581471663
-2.545988773	17.36637217	2.419620061
-3.193846119	17.33813919	2.259061831
-1.877345892	17.14632968	1.907941858
-2.548644827	17.42262476	1.772106146
-3.258593003	17.7260893	1.64467235
-3.941693279	17.79687112	1.49061998
-1.923523544	17.6392176	1.308938131
-3.239208862	17.69705884	0.325028779
-3.922998511	17.76532695	0.157817988
-3.220007342	17.63037381	-0.327223209
-3.889276306	17.66385531	-0.504582805
-1.837027536	17.38002807	5.341872608
-2.570799526	17.82991689	5.293698058
-3.200150803	17.48673933	5.033442256
-3.963939314	17.85565482	4.990639674
-1.844636722	17.39682541	4.615673488
-2.585754619	17.93364027	4.58416253
-3.177390676	17.43626012	4.301824211
-1.848905106	17.38787663	3.920419614
-2.574110456	17.8816044	3.861458115
-3.172401115	17.44512792	3.610038627
-1.84729421	17.37272578	3.242412129
-3.154636168	17.37327656	2.925057219
-3.813755124	17.38845513	2.776542987
-1.848805269	17.37828373	2.581617813
-2.493119764	17.3770432	2.420029665
-3.140461671	17.34688058	2.258934755
-1.822104168	17.12730057	1.905193251
-2.497859926	17.44907514	1.774008726
-3.203840903	17.73404279	1.644490556
-3.886437124	17.80595842	1.490375482
-1.867191656	17.62420922	1.307393179
-3.864224361	17.75773634	0.157644508
-3.167315883	17.64804353	-0.327369241
-3.830191161	17.65323614	-0.503941399
-1.784868933	17.39699794	5.345380695
-2.515147942	17.83106953	5.291724429
-3.906665802	17.85642139	4.987480627
-1.793829418	17.42740928	4.622306291
-2.525577408	17.90500901	4.574842266
-1.796352807	17.40123277	3.922169845
-2.511601803	17.83518858	3.849752953
-3.121105929	17.46732002	3.612632147
-1.793582905	17.37440096	3.241682094
-2.490528322	17.7034434	3.137535925
-3.100454383	17.378016	2.92423992
-3.75851151	17.39138155	2.775156105
-1.794667696	17.37600085	2.580448845
-2.437593066	17.36891488	2.417844797
-3.072983833	17.27635585	2.248512526
-1.768630822	17.12391121	1.904203813
-2.440313914	17.42808161	1.771104789
-3.149244505	17.74280829	1.644399719
-3.828228694	17.80123407	1.488989913
-1.812806485	17.62687954	1.307172523
-3.808258843	17.76266314	0.157583786
-3.78165562	17.6912958	-0.504694325
-1.732718216	17.41476261	5.349180609
-2.460562278	17.83965264	5.292006241
-3.157910832	17.87462504	5.139418361
-3.850848364	17.86360751	4.986164556
-1.738721541	17.41647535	4.617969458
-2.459772042	17.83392344	4.554729753
-1.74130536	17.39015524	3.918450751
-2.456739188	17.84184228	3.849544098
-1.740760327	17.38471209	3.24259452
-2.418620566	17.58317793	3.114891645
-3.043889135	17.36898385	2.921134757
-3.703286071	17.39413385	2.773769225
-1.740265623	17.37059703	2.57884119
-2.383082464	17.36747893	2.416615749
-3.019966089	17.28570081	2.248512524
-1.715096229	17.11936738	1.903104346
-2.388992966	17.45125795	1.772706961
-3.087441198	17.71020097	1.640492039
-3.770292358	17.79729502	1.487685882
-1.758620418	17.63136515	1.30709897
-3.75209264	17.76643737	0.157514391
-3.730451042	17.71748741	-0.50511263
-1.676529418	17.39143861	5.340411099
-2.404537468	17.83760934	5.289186704
-3.089733932	17.80744052	5.117351292
-3.78740802	17.83475944	4.974845397
-1.682766699	17.39574281	4.611081546
-2.409838864	17.8769349	4.563804918
-1.689641211	17.41289828	3.922388475
-2.406554298	17.88321682	3.856859735
-1.686751874	17.38312084	3.241317075
-2.360596825	17.56025346	3.109532949
-2.985066064	17.34615531	2.915741727
-3.649701479	17.40444634	2.773614969
-1.685531216	17.36108617	2.576649171
-2.329657091	17.37372525	2.416479134
-2.972957688	17.33007942	2.253088017
-1.661798288	17.11663503	1.902224821
-2.335573888	17.4594916	1.772807097
-3.036116865	17.73725689	1.642127827
-3.713230357	17.79707095	1.486707771
-1.703848339	17.62972957	1.306583986
-3.695532141	17.76807485	0.157427652
-3.674656245	17.72199766	-0.504917425
-1.620500014	17.36793475	5.331642063
-2.347671934	17.82873145	5.284394011
-3.044943266	17.8746949	5.133969544
-3.73405664	17.85290595	4.976688372
-1.628578073	17.3921587	4.608785574
-2.350172431	17.84772025	4.554484659
-1.633929799	17.39371154	3.916919151
-2.344795799	17.83815931	3.845572524
-1.632861574	17.3823416	3.240222258
-2.30478818	17.55276464	3.106940146
-2.93364255	17.36593259	2.917539404
-3.59468976	17.40781936	2.772382105
-1.631797347	17.36125078	2.575918655
-2.273385429	17.35820057	2.413338209
-2.906599233	17.26086918	2.242920179
-1.611416579	17.14441212	1.904753487
-2.268592792	17.36397069	1.762392974
-2.977395121	17.72095445	1.639765099
-3.656807124	17.79959103	1.485974275
-1.649102859	17.62792182	1.306069001
-3.63739193	17.76169521	0.157271517
-3.610271273	17.68421765	-0.503523094
-1.565318074	17.35187091	5.325211437
-2.293697165	17.84156052	5.286085356
-2.991042137	17.8896454	5.135604139
-3.677515499	17.85577402	4.974318971
-1.574863194	17.39322225	4.607765145
-2.296517666	17.86350131	4.556691941
-1.578705012	17.37823596	3.912325064
-2.288315588	17.83168884	3.84264641
-1.578191296	17.37258012	3.237485209
-2.247419743	17.53239878	3.102100012
-2.877607776	17.35830456	2.914761111
-3.539691677	17.41102017	2.771149243
-1.57807839	17.36124893	2.575187902
-2.219743467	17.36214559	2.412928605
-2.841340122	17.19533005	2.23326065
-1.559440577	17.15620511	1.905523103
-2.229030015	17.47842928	1.773307776
-2.921394201	17.72017921	1.638856248
-3.600205842	17.80095854	1.485159242
-1.594923518	17.63190619	1.305995332
-3.581104274	17.76394771	0.15719345
-3.555409022	17.69227071	-0.503439409
-1.516142855	17.40327514	5.339534197
-2.229992944	17.77711471	5.26494001
-2.922748382	17.81708236	5.112175222
-3.625401348	17.88020791	4.978004441
-1.521746867	17.40085989	4.608530464
-2.248942268	17.9281767	4.571408562
-1.524102501	17.36841704	3.90904347
-1.524541696	17.37342298	3.236755174
-2.1934983	17.53823364	3.101927158
-2.821964475	17.352446	2.912309693
-3.483932128	17.41017305	2.76930007
-1.524807429	17.36600921	2.575187903
-2.164750323	17.35511139	2.411016726
-2.79841176	17.26467046	2.241140859
-1.503842884	17.12724328	1.901785057
-2.170605645	17.44667765	1.769402479
-2.864789836	17.71529502	1.637584046
-3.543046936	17.79921273	1.48409971
-1.540648576	17.63472847	1.305848227
-3.525226264	17.76798497	0.157132728
-1.460661224	17.3830674	5.331934365
-2.175093453	17.78101627	5.264094103
-2.872657866	17.85446405	5.120347737
-3.538620216	17.73136051	4.933517921
-1.464696992	17.36209118	4.597050613
-2.187454603	17.88206701	4.557918364
-3.449553539	17.38622836	4.121506757
-1.469986603	17.36328776	3.906855741
-2.175777695	17.82015581	3.83721166
-3.440789037	17.40410625	3.437891979
-1.470072415	17.36430323	3.23420052
-2.134673476	17.50381719	3.094667311
-2.767160868	17.351279	2.910675333
-3.423438807	17.38490942	2.76359805
-1.470436526	17.35778946	2.573288181
-2.109701326	17.34692081	2.408968235
-2.744341608	17.26631855	2.240251083
-1.449612169	17.11196807	1.89958624
-2.116830134	17.45127956	1.769202208
-2.80902302	17.71514817	1.636766151
-3.484782997	17.79141437	1.48255118
-1.48628745	17.63639058	1.30562757
-3.467632634	17.7630152	0.156993939
-1.407941069	17.39509139	5.334272773
-2.075897384	17.41319981	5.153291928
-2.812020406	17.82612748	5.109723327
-3.412817619	17.37861888	4.832436547
-1.412442186	17.37903176	4.600367016
-2.072563488	17.38523503	4.429640112
-3.397876706	17.40533354	4.123545235
-1.415519871	17.35312827	3.903574148
-2.064943333	17.35481189	3.735627464
-3.387190518	17.41361708	3.437701722
-1.416073172	17.35991128	3.232558291
-2.06352711	17.36357479	3.068738577
-2.713152847	17.35481307	2.909858271
-3.365012372	17.36914003	2.759437169
-1.416532804	17.35433186	2.572118978
-2.052391573	17.31887994	2.40418842
-2.693799316	17.2903374	2.242284556
-1.396944765	17.1143544	1.8993663
-2.061762089	17.44484694	1.767900443
-2.752978191	17.71285884	1.635766581
-3.424526149	17.77266158	1.480106078
-1.431930616	17.63788625	1.305406795
-3.405577028	17.73428889	0.15664698
-1.353973259	17.39170153	5.331934363
-2.02301786	17.4242509	5.154701458
-2.755553335	17.82325916	5.106454129
-3.373392667	17.46099631	4.852442251
-1.358966669	17.38135388	4.599856797
-2.021117386	17.40788225	4.43381005
-3.340604216	17.39558952	4.118789262
-1.361969136	17.35349871	3.902698916
-2.013378085	17.37563533	3.738762667
-3.333381265	17.42199822	3.437321206
-1.362114694	17.35535286	3.230916064
-2.009907056	17.36688846	3.068220017
-2.65929882	17.35915533	2.909204529
-3.31152385	17.37841169	2.75928315
-1.36274161	17.35169198	2.571096161
-2.000383938	17.33493645	2.405554081
-2.633256534	17.24949443	2.235929746
-1.347622844	17.15918635	1.903873962
-2.011986145	17.48370953	1.771204925
-2.697873186	17.71629868	1.635312155
-3.34975679	17.67634594	1.471222125
-1.378044652	17.64517976	1.305627571
-3.330555055	17.63558524	0.155684141
-1.968366565	17.41988813	5.151600109
-2.704749869	17.85731656	5.113809822
-3.316025308	17.45136076	4.846914279
-1.306503941	17.39701164	4.602918091
-1.967701271	17.41399985	4.433810048
-3.285773627	17.39809965	4.116977281
-1.310630435	17.38289275	3.908387104
-1.960280086	17.38367519	3.739180854
-3.27519586	17.40705766	3.432374736
-1.308714939	17.35748871	3.230551045
-1.955955284	17.36710026	3.067182895
-2.605150795	17.361378	2.908223913
-3.259829924	17.39722909	2.760670031
-1.30957542	17.35677827	2.571242312
-1.947523282	17.34394479	2.405963685
-2.586043708	17.29575002	2.240886469
-1.293626718	17.14539926	1.901894968
-1.949812357	17.413662	1.763494467
-2.642626293	17.71858214	1.634766892
-3.300622699	17.71397524	1.473504268
-1.322262298	17.62744453	1.304009065
-3.280085213	17.66538297	0.155857621
-1.266105882	17.66295244	5.412610443
-1.915018738	17.42679915	5.151882395
-2.649951661	17.86552881	5.113809818
-3.262823852	17.46334826	4.847440707
-1.286947728	17.87060799	4.727156103
-1.914266594	17.41995477	4.433810048
-2.645282686	17.92674154	4.398295993
-3.232381674	17.40809939	4.116977283
-1.284530353	17.76347491	3.993052404
-1.90853753	17.40418857	3.742316059
-2.627636483	17.85246121	3.673879973
-3.221776225	17.41702462	3.432374737
-1.269072278	17.54970659	3.265586416
-1.902235766	17.36910253	3.066491481
-2.549436568	17.35269582	2.905445622
-3.20089191	17.37702541	2.755892837
-1.256033708	17.3567676	2.570657711
-1.894303604	17.34983792	2.405963684
-2.53469286	17.3153804	2.24241187
-1.241880176	17.16118318	1.903214375
-1.901439825	17.4660524	1.768200851
-2.586527502	17.71478255	1.633676366
-3.244645298	17.71519463	1.472770655
-1.26567169	17.59660341	1.301434145
-3.219589413	17.64093328	0.155554024
-1.89972865	17.59301657	-0.158748556
-1.197119435	17.45113156	5.346549899
-1.860526293	17.42305324	5.14906286
-2.590842572	17.84405834	5.105364085
-3.203480745	17.44196421	4.838754164
-1.231915884	17.87157998	4.726390783
-1.8595787	17.41417895	4.430866536
-3.179833495	17.42272389	4.118109768
-1.235283264	17.84326003	4.010116499
-1.855340414	17.41190693	3.742734244
-2.572853531	17.86043761	3.673879971
-3.166746081	17.41813331	3.430662652
-1.230978485	17.781078	3.307920736
-1.848209557	17.36800101	3.065281506
-2.495766028	17.3575057	2.904955432
-3.146332708	17.37995924	2.754813995
-1.202231027	17.35264417	2.569488743
-1.840857223	17.35359811	2.405690694
-2.481558124	17.32307407	2.242411869
-1.190392421	17.18176931	1.905083339
-1.839578675	17.39363682	1.760290122
-2.530195025	17.70883286	1.632404164
-3.190280574	17.72506524	1.472770654
-1.210447203	17.58249495	1.30010985
-3.164922964	17.64777503	0.155528007
-1.844702066	17.58881747	-0.158658836
-1.141636274	17.42513928	5.337488087
-1.806965373	17.42772391	5.148781046
-2.537033004	17.85859042	5.107271429
-1.176699715	17.86948631	4.724860135
-1.8055441	17.41401591	4.429395014
-2.5204169	17.83775222	4.372585887
-1.179118198	17.82554667	4.005303781
-1.800101389	17.40000767	3.738971761
-2.512029729	17.82555344	3.665101875
-3.122615733	17.47995427	3.440935869
-1.177654014	17.80341111	3.311387818
-1.794309261	17.36771151	3.064244386
-2.440303731	17.34944998	2.902340458
-3.091093781	17.37882989	2.753118839
-1.14859617	17.3503284	2.568611841
-1.787405506	17.35719375	2.405417468
-1.137083005	17.17641498	1.904093902
-1.790779552	17.44373738	1.764796233
-2.475439883	17.71355237	1.632131532
-3.134497511	17.72691873	1.472118699
-1.155910174	17.57716933	1.299447761
-3.109724612	17.65149393	0.155475957
-1.752337193	17.42173003	5.145397412
-2.480377865	17.85294792	5.103457211
-3.158050325	17.80895966	4.935097206
-1.122537567	17.88362744	4.727666322
-1.750266763	17.40114557	4.424734883
-2.463950485	17.83288763	4.369519351
-1.128048227	17.88653571	4.018211285
-1.745441029	17.39279995	3.736254506
-2.458399923	17.84094263	3.666697851
-1.128102966	17.88740446	3.326350968
-1.740231725	17.36529479	3.062861559
-2.386930416	17.35587815	2.902177141
-3.034020708	17.36681858	2.749728526
-1.095049026	17.34883418	2.567881089
-1.734342793	17.36456542	2.405690693
-1.080436656	17.11732823	1.897167484
-1.73755028	17.45211989	1.76509664
-2.421083812	17.72106372	1.632131532
-3.080950103	17.74136212	1.472526157
-1.098796885	17.5298701	1.295695767
-3.056578811	17.6668624	0.155528007
-1.73527137	17.58487907	-0.158524279
-1.042402553	17.56164869	5.377241526
-1.69766969	17.41461025	5.141732439
-2.427406955	17.87382081	5.107271428
-3.101246386	17.80620871	4.93167542
-1.066629087	17.86961366	4.72307438
-1.696590308	17.40353919	4.423999124
-1.07106437	17.85484805	4.010335368
-1.691031146	17.38736553	3.733955196
-1.073690887	17.89863193	3.327810804
-1.686757166	17.36859005	3.06251585
-2.333146493	17.35920824	2.901523397
-2.979389516	17.36825354	2.748495663
-1.041699855	17.35013753	2.567588788
-1.681156361	17.37079217	2.405827308
-1.027261056	17.10964975	1.895958107
-1.681897979	17.43558047	1.762893653
-2.366441353	17.72643451	1.631949739
-3.025333226	17.74385353	1.471955621
-1.045722853	17.54510469	1.296578512
-3.001525903	17.67122686	0.15548463
-1.643783616	17.414961	5.140322908
-2.369395584	17.85733962	5.100460291
-3.047091035	17.81849282	4.932465064
-1.013495046	17.90272801	4.730982724
-1.642460273	17.40094074	4.422036938
-2.350924989	17.82069441	4.362915155
-1.020217728	17.92721718	4.025868336
-1.637862843	17.3944199	3.734373382
-2.35987486	17.93924336	3.683855405
-1.01922048	17.90969486	3.329270404
-1.633463108	17.37368342	3.06251585
-2.280905563	17.3741097	2.902830884
-2.923957478	17.36464685	2.746492233
-0.988690515	17.35720247	2.56817339
-1.626377188	17.36008688	2.403642202
-0.975442857	17.12462814	1.897277396
-1.628490882	17.44164835	1.762993788
-2.309213906	17.71188634	1.62995048
-2.969565664	17.74518667	1.471303664
-0.991383796	17.53927021	1.295916424
-2.942529074	17.65174894	0.155233083
-0.944127415	17.74629352	5.431902797
-1.589213529	17.4075025	5.136657465
-2.307181071	17.80727137	5.084114785
-2.986980692	17.79540841	4.923515305
-0.956756432	17.87195899	4.722053947
-1.588009457	17.39431342	4.419093426
-2.30443408	17.89143548	4.37848246
-0.96133163	17.85815968	4.009679236
-1.584578559	17.40033696	3.734582239
-2.295090718	17.87058935	3.668294063
-1.580064513	17.37763185	3.062342996
-2.223954855	17.35264703	2.898091361
-2.86986439	17.36866139	2.745721664
-0.935541183	17.36212875	2.56846569
-1.57284138	17.36203441	2.403232598
-2.214790623	17.35319761	2.241649169
-0.925628109	17.17815737	1.902884523
-1.575420324	17.45151707	1.763494467
-2.24116053	17.61120561	1.620045021
-2.913656952	17.74536152	1.470570051
-0.936930676	17.53027857	1.295033561
-2.890781355	17.67549676	0.1553632
-1.534788999	17.40082737	5.133274304
-2.251572597	17.8066296	5.081935164
-2.926727048	17.77021962	4.914038645
-1.535403647	17.40779473	4.421300706
-1.527845318	17.36712422	3.726430468
-1.526484728	17.37945498	3.061824437
-2.170339803	17.35645239	2.897600936
-2.817513176	17.38323639	2.746646252
-0.882069764	17.36096627	2.567881089
-1.51922261	17.36283131	2.402686381
-2.162644309	17.36876933	2.242793101
-0.873224509	17.18687293	1.90354411
-1.512712299	17.35119965	1.752880072
-2.191290804	17.65160141	1.623134808
-2.85698267	17.74044133	1.469429098
-0.883244504	17.53506321	1.295180784
-2.832897446	17.66157202	0.155163688
-0.82784934	17.59508826	5.383964925
-1.480908659	17.39971732	5.131582485
-2.197167592	17.81536379	5.082480188
-2.883118819	17.84673391	4.932728276
-1.481414535	17.40566195	4.419584091
-2.187635483	17.84832849	4.364565967
-1.476458854	17.39414121	3.73123794
-2.170182132	17.75983382	3.642757287
-0.851109948	17.85055339	3.316679757
-1.472742342	17.37914899	3.060959933
-2.116006088	17.35421474	2.89613013
-2.763548568	17.38789455	2.746029938
-0.828284061	17.35272128	2.566273671
-1.465530408	17.36247374	2.402003549
-2.10683725	17.35464502	2.240124005
-0.820065312	17.18053519	1.902554671
-1.467976626	17.45688874	1.763093923
-2.136408258	17.65230859	1.622589544
-2.800987865	17.73927809	1.468614064
-0.829631956	17.54167458	1.295474992
-2.777456597	17.66227803	0.155094294
-1.426735775	17.39461654	5.128762948
-2.093922229	17.41792943	4.967241522
