x	y	z
8.692032979	-3.100981678	0.343075734
15.35054484	-4.247689273	0.287746372
8.605549173	-3.073683691	0.006220039
15.40387467	-4.313366633	0.288992735
8.541424501	-3.110005942	0.006187366
8.405131846	-3.08961884	0.006095475
8.23435756	-3.055553198	0.005978398
15.70901892	-5.236155659	0.4567419
8.200597077	-3.071681364	0.0059607
15.60246289	-4.120509739	0.139983876
8.671426079	-2.981357969	-0.0822629
8.757329188	-3.033775475	0.594782438
8.999898503	-3.123087161	0.262767911
8.664128168	-3.008603426	-0.082280841
8.776238959	-3.070515265	0.596703793
8.804432303	-3.085554155	0.257336081
8.652026027	-3.034177787	-0.082253929
8.740431087	-3.08811719	0.594910528
8.68278469	-3.072864824	0.254054934
8.653988098	-3.064713159	-0.082361575
8.699898136	-3.103852045	0.592797066
8.652607219	-3.092088292	0.253448338
15.15564384	-4.202123694	0.13642746
8.637012483	-3.08855516	-0.082289811
15.09454063	-4.235094321	0.135993762
15.02953157	-4.266637679	0.135525344
14.8775432	-4.86392541	0.28277901
14.96254882	-4.297269712	0.135039596
14.93008947	-4.3375743	0.134866116
8.20165851	-3.073609568	0.241592065
14.92708531	-4.981708249	0.284296306
14.90807708	-4.380821367	0.134788049
8.183775177	-3.095574424	0.241343901
14.90319307	-4.429101847	0.134866116
6.96995375	-2.95229534	0.558388041
14.70505398	-5.008094158	0.280647548
14.900069	-4.47796924	0.134961529
7.109435177	-3.037134363	0.570306227
7.877331084	-3.035038967	0.232851506
14.8766931	-4.52075355	0.134874789
6.920746106	-2.962098917	0.005124147
6.913239798	-2.978433317	0.555298195
8.805138958	-3.055050953	0.509651689
8.829740108	-3.067731027	0.168872626
14.87040076	-4.568722921	0.134944184
6.911626168	-2.983317616	0.005124147
6.908642699	-3.001616014	0.555666015
8.755204226	-3.067851918	0.507303803
15.62452549	-4.851133076	0.739483168
6.921688333	-3.009869005	0.280590248
8.80990849	-3.091164469	0.168673934
14.84103467	-4.609577344	0.134805394
6.919862015	-3.012091168	0.005137079
6.87108409	-3.01039069	0.553385363
8.741045053	-3.093032524	0.507030814
15.40369042	-4.834430752	0.729729941
6.909675828	-3.029886464	0.280478788
8.777765312	-3.110164035	0.168240415
14.78484497	-4.641907767	0.134423731
6.90875721	-3.03250299	0.005135718
8.705710419	-3.107188667	0.843510286
6.798872154	-3.003648934	0.548309133
7.505435375	-2.9934824	0.518569316
8.431562885	-3.012660206	0.489612877
15.44591917	-4.899790137	0.73243921
8.558250305	-3.061969846	0.164212333
14.81056485	-4.699948243	0.134788049
6.954514329	-3.09794477	0.561625109
7.424003592	-2.987436322	0.513573851
15.30524502	-4.906896192	0.726478924
6.890954734	-3.072226454	0.280478788
8.69081125	-3.13950665	0.166939871
6.873582464	-3.067501861	0.005123466
6.860371411	-3.081266394	0.554783211
6.892434391	-3.09826975	0.2809246
8.528030123	-3.110313709	0.163995566
6.844988285	-3.079958177	0.005109172
6.859062343	-3.106001663	0.5554453
6.81190125	-3.087224993	0.278026921
8.301709864	-3.056660696	0.159822973
6.821847071	-3.094746809	0.005098961
6.934779495	-3.165962903	0.562360809
8.291923614	-3.078025603	0.483661322
6.84602632	-3.128043535	0.279810113
8.274486656	-3.075497196	0.159479769
6.815048355	-3.116909114	0.005101004
6.758340239	-3.110503432	0.548824117
8.146862476	-3.052648848	0.475744067
15.17944864	-5.07281453	0.72340845
6.749263257	-3.108895623	0.276243758
8.249097734	-3.094897807	0.159172701
6.816351431	-3.142827339	0.005109172
8.146995615	-3.085136751	0.157384442
6.818465936	-3.169204157	0.00511802
7.991796139	-3.054432312	0.154566588
6.818671988	-3.194775002	0.005125508
6.887930683	-2.926116651	-0.067138005
7.903094833	-3.048352241	0.153031217
6.789849473	-3.206711285	0.005111214
6.864214566	-2.940933817	-0.06699447
8.76336757	-3.048678454	0.419388165
8.671558757	-3.01775693	0.079646302
6.787202781	-3.230965827	0.005116659
6.85607754	-2.96237576	-0.06700344
7.20777643	-3.133132895	0.790973997
6.903078297	-3.001830272	0.483088608
8.782248499	-3.085483799	0.42074277
6.887412358	-2.999307175	0.207208902
8.667919815	-3.046335947	0.079698345
6.779061813	-3.252638668	0.00511802
6.890959198	-3.002568931	-0.067434046
8.581241643	-3.039414307	0.744454228
6.884696905	-3.01898681	0.482448185
7.662221628	-3.033035416	0.450627326
8.753911482	-3.105732396	0.4198397
6.886415546	-3.024040525	0.207457051
8.681149844	-3.080941221	0.079906521
6.813163692	-3.294753414	0.005151374
6.888123851	-3.026511584	-0.06749684
8.63569098	-3.08855037	0.749996446
7.542533621	-3.012456569	0.444129734
6.904525939	-3.057295281	0.20828423
6.870600628	-3.063205498	0.482768411
7.491579185	-3.018788786	0.441672652
6.892375628	-3.077241132	0.208201513
8.299124664	-3.002823146	0.07655829
6.816155676	-3.347958858	0.005169071
6.862119458	-3.065456458	-0.067425076
6.892117684	-3.098181479	0.484945918
6.873786921	-3.094268837	0.207925782
7.385390411	-3.005974409	0.144053819
8.462695898	-3.091402096	0.078154338
6.799578818	-3.365749373	0.005164307
6.83353592	-3.077871135	-0.067236688
6.856220538	-3.107364964	0.483088608
6.838774368	-3.103775491	0.207153753
8.221436573	-3.031891879	0.07601182
6.794589892	-3.389272571	0.005168391
6.826792332	-3.100061797	-0.067263599
6.856639164	-3.132946983	0.483793105
8.130385193	-3.02571265	0.392115285
6.843763537	-3.131396345	0.207594917
8.194290853	-3.050472109	0.075847005
6.7823729	-3.40920391	0.005167029
6.816340237	-3.120575289	-0.067254629
6.810739108	-3.137267183	0.481231327
7.171992709	-2.992827224	0.424964546
6.810524049	-3.141491873	0.206878022
8.196126711	-3.079818383	0.075951098
6.77366574	-3.4308997	0.005168391
6.819445429	-3.147339273	-0.067380223
7.250206628	-3.051615638	0.4301517
7.973465143	-3.024098595	0.073973386
6.765780473	-3.453028625	0.005170433
6.801597772	-3.164450041	-0.067299481
7.080883757	-3.005953179	0.420651017
6.892204978	-3.541052434	0.288057309
7.952942843	-3.04425697	0.073869294
6.756043952	-3.474226688	0.005171113
6.789141085	-3.184028321	-0.06727257
7.000948645	-2.997401841	0.416446685
7.949162658	-3.070803807	0.073921343
6.796851518	-3.52161997	0.005210593
6.789285143	-3.209543111	-0.067371245
6.983469531	-3.015304074	0.415955274
6.969470327	-3.01272385	0.137171747
6.776264216	-3.537365503	0.005203106
6.800168853	-3.240250543	-0.067577582
6.94945572	-3.023061471	0.691565709
6.941228127	-3.022364306	0.413989632
6.942780432	-3.026500328	0.136828558
6.800781717	-3.576757326	0.005230332
6.797407231	-3.2645611	-0.067649346
6.875398015	-3.015964588	0.685113565
6.803791901	-3.59910207	0.567804859
6.893524415	-3.026785567	0.411696344
7.545404504	-2.994013353	0.366919478
6.924309168	-3.043762804	0.136647926
6.776522409	-3.590582277	0.005220122
6.809861328	-3.29629185	-0.067873616
7.569570592	-3.030514718	0.368545016
6.924993267	-3.069448703	0.136846619
6.773414461	-3.615593537	0.005226248
6.740221825	-3.61478988	0.846007388
6.724466849	-3.61011926	0.563022898
6.872086889	-3.067805332	0.41153255
7.487988383	-3.024540668	0.365023007
6.901851579	-3.08456036	0.136575671
6.76317046	-3.636830577	0.005226929
6.808352261	-3.347279236	-0.068062004
6.683533987	-3.614602573	0.560521588
6.851716488	-3.083956118	0.410877316
6.884151893	-3.102023637	0.136413099
6.759015481	-3.661373009	0.005232375
6.787298525	-3.362823937	-0.067954358
6.780131257	-3.693774518	0.569570527
6.840404419	-3.10413723	0.41076812
6.861858216	-3.117339813	0.136160212
6.773207103	-3.695983333	0.005252114
6.78052828	-3.385417876	-0.06799024
6.721555507	-3.688649481	0.565597818
6.829940973	-3.124693244	0.410713523
6.810446807	-3.119225269	0.135329308
6.746938422	-3.70855707	0.005240543
6.779042655	-3.410698702	-0.068079945
6.75297495	-3.732894927	0.569202707
6.8112548	-3.141450639	0.410167514
7.19963028	-3.011352151	0.352741202
6.760024826	-3.742801587	0.005259601
6.787276707	-3.440975754	-0.068268333
6.812068865	-3.792892184	0.5751618
7.212447848	-3.0427455	0.353824874
6.760737586	-3.770342223	0.005269131
6.786483586	-3.466786668	-0.068367016
6.787352729	-3.806456198	0.574058221
6.935583372	-2.951041028	0.340685149
6.756985523	-3.795473849	0.005275257
6.790040954	-3.494913028	-0.068510551
6.790404525	-3.835599886	0.575308905
6.861323068	-2.94518871	0.064770086
6.791438408	-3.842283897	0.005311333
6.778399437	-3.515267832	-0.06850158
7.062126541	-3.051807655	0.629126572
6.788140333	-3.861838902	0.576118157
6.834819516	-2.958677608	0.064605271
6.763979031	-3.85419016	0.005299081
6.775559205	-3.540214749	-0.068582315
6.969585283	-3.03722627	0.621709728
6.817795418	-3.906445184	0.579649494
6.900804136	-3.011553002	0.340323915
6.828459336	-2.98083263	0.064631296
6.744317167	-3.870443974	0.005292955
6.771744615	-3.564711468	-0.068654086
6.87993781	-3.023308965	0.61453744
6.857721617	-3.018688557	0.064995615
6.760981984	-3.907630206	0.005315417
6.761659912	-3.585938697	-0.068663057
6.843293507	-3.032289231	0.61209228
6.793697556	-3.948205018	0.579649494
6.762789777	-3.936403117	0.005326308
6.817578643	-3.045951656	0.61062523
6.748956145	-3.956121126	0.005324947
6.806384279	-3.066034788	0.610462212
6.797696469	-4.00652681	0.582077251
6.842384021	-3.086561881	0.339285364
6.832382299	-3.082911408	0.065021632
6.763482671	-3.992566815	0.005346048
6.765290174	-3.668037435	-0.069039833
6.775166421	-3.077010672	0.608506165
6.781084407	-4.024817606	0.58170943
6.836519777	-3.109193893	0.339465996
6.809238659	-3.097647322	0.064891523
6.759797616	-4.018407889	0.005352855
6.763658571	-3.694048104	-0.069138508
6.778381302	-3.103590919	0.609647178
6.799522042	-4.064022242	0.584357903
6.814235497	-3.124324412	0.338833829
6.836060254	-3.135197381	0.065238489
6.762881999	-4.048372898	0.005365107
7.098362912	-3.905171686	-0.072682004
6.794711738	-4.089492303	0.585019992
6.805524716	-3.145634612	0.338878979
6.829132599	-3.157414376	0.065264514
6.74786066	-4.067553523	0.005363065
7.14582417	-3.959889309	-0.073292028
6.771898696	-4.104116005	0.584137187
6.813069073	-3.17539407	0.065203791
6.790915003	-4.121963609	0.005407309
7.151977788	-3.992028892	-0.073480416
6.769491199	-4.131106729	0.585019992
6.794244507	-3.192029206	0.065117052
6.789329057	-4.149557586	0.005416158
7.146669944	-4.017872063	-0.07355218
6.794748344	-3.212524903	0.61461892
6.81031639	-4.184749092	0.589654849
6.781428318	-3.518246925	0.138020726
6.788938123	-3.21499853	0.065160422
6.774863038	-4.16931929	0.005414796
7.139530846	-4.04273507	-0.073606003
6.798356794	-3.239787374	0.615841471
6.791509048	-4.201949915	0.589139865
6.821457168	-3.256057038	0.06556811
6.752689673	-4.184290951	0.005407309
7.135780431	-4.069573825	-0.073695715
6.810845225	-3.271417321	0.617879056
6.791282867	-4.230676151	0.590243386
6.778995798	-3.261362905	0.065255841
6.767818567	-4.222455769	0.005429771
7.139736453	-4.100909857	-0.073866162
6.798982374	-3.291428787	0.617716037
6.758839423	-4.239303494	0.588551328
6.752762468	-3.274292104	0.065099699
6.751444989	-4.241071952	0.005427049
7.138374102	-4.129304034	-0.073982779
6.801393001	-3.318390769	0.618857109
6.76519598	-4.27226697	0.590243385
6.773231366	-3.309921269	0.065394623
6.736711491	-4.260695975	0.005425687
7.132584112	-4.15521173	-0.07405455
6.791180153	-3.339241506	0.618857108
6.747007581	-4.289791688	0.589802012
6.73792684	-3.318315314	0.065151749
6.731199785	-4.286177744	0.005431813
7.129289677	-4.18264077	-0.074153226
6.754112146	-3.346785292	0.616412006
6.764052917	-4.32982721	0.592450486
6.750107503	-3.350085014	0.065368606
6.734013418	-4.317062834	0.005444746
7.116423953	-4.20449344	-0.074153226
6.744704337	-3.367936017	0.616493486
6.718043922	-4.329489213	0.589581297
6.744269754	-3.373014782	0.065411975
7.12927241	-4.241645196	-0.074422356
6.739681829	-3.391300608	0.616982542
6.749907431	-4.379391068	0.593554006
6.710189538	-3.689386827	0.418739973
6.799076465	-3.426542389	0.066045186
7.129950334	-4.271719983	-0.074565891
6.768359137	-3.431793582	0.620568657
6.732264985	-4.39735227	0.593186185
6.763567662	-3.434707924	0.065802311
6.752575154	-4.417178042	0.005492393
7.109105521	-4.288925651	-0.074485149
6.817537513	-4.13346352	0.802389478
6.610465624	-3.37727024	0.607039058
6.731241963	-4.426204734	0.594289706
6.750327938	-3.454075717	0.065776287
7.082239936	-4.302408912	-0.074341614
6.769328184	-3.484662837	0.6226063
6.679465216	-4.083911618	0.215949447
6.748586969	-3.479351449	0.065863034
6.960672839	-4.25784847	-0.073202316
6.71613774	-3.483387992	0.61869409
6.776925189	-3.520321491	0.066244697
6.784104734	-4.178496817	-0.071479905
6.767252861	-3.536288214	0.624399328
6.720034148	-4.507970738	0.596938179
6.744909371	-4.182952896	-0.071201812
6.768718561	-3.563533579	0.625540399
6.821398826	-3.595830881	0.348541906
6.755793603	-4.218456105	-0.071452994
6.80797518	-3.939666287	0.142103003
6.747052885	-4.241823613	-0.071497854
6.788636487	-3.631963466	0.34800004
6.726402931	-4.257690259	-0.071417112
6.716681843	-4.280456069	-0.071452994
6.754038122	-3.667849382	0.06666973
6.703518228	-4.301042539	-0.071452994
6.733980853	-3.683754347	0.066582991
6.775919512	-4.759579426	0.610842691
6.740163738	-3.714048318	0.06675647
6.754092651	-3.748782557	0.067008024
6.832880219	-4.15245559	0.144451218
6.763507152	-3.781197191	0.067216201
6.784984956	-3.820573624	0.067545822
6.784539494	-3.847784727	0.067658586
6.783990357	-3.875028948	0.067771351
6.758202022	-3.887845498	0.067632562
6.768738462	-3.921594706	0.067858091
6.765179613	-4.632291139	0.526190663
6.754947889	-3.941334434	0.067840746
6.773121505	-4.668315785	0.527919854
6.766102365	-3.975717826	0.068074947
6.825113552	-4.03282442	0.648279928
6.760407492	-4.690211118	0.528047944
6.768502852	-4.005114213	0.068222409
6.708349375	-4.684646677	0.525101924
6.748452198	-4.021253821	0.068144342
6.714356398	-4.719552686	0.526703025
6.741228246	-4.045025929	0.068196384
6.726218755	-4.064137202	0.068170359
6.735075694	-4.097747917	0.068387216
6.729293507	-4.122570304	0.068456611
6.73023116	-4.151595796	0.0685954
6.730204422	-4.18013851	0.06872551
6.949747483	-4.866723115	0.38349091
6.733100927	-4.745864501	0.372337927
6.726604935	-5.936836736	0.333528292
6.740489139	-5.985978576	0.335125726
6.696757214	-5.983991053	0.333862644
6.719981431	-6.041923826	0.335943025
6.679181296	-6.042399618	0.334828537
6.787478235	-5.706570818	0.24459748
6.774905311	-5.80326544	0.246058852
6.775999043	-6.282900625	0.343521517
6.734770664	-6.283208568	0.34240703
6.740234732	-6.327094671	0.343670112
6.722244687	-6.349115893	0.343744409
6.749759114	-6.410363707	0.686692283
6.691144079	-6.358695492	0.343150031
6.721048448	-5.938273688	0.247382343
6.680271923	-6.38748116	0.343595815
6.70877508	-5.9641793	0.247602911
6.678647612	-6.425266198	0.344524545
6.678525045	-5.97406985	0.247161747
6.675025203	-6.007906189	0.247713209
6.787354673	-5.813390317	0.488684653
6.785601629	-6.810451097	0.709204362
6.809585994	-6.876589229	0.71391277
6.725857618	-6.320309626	0.2545788
6.702077617	-6.336794352	0.254413367
6.735509553	-6.400940312	0.596319522
6.694193052	-6.368350013	0.254854531
6.715417041	-6.391220822	-0.083168957
6.696287327	-6.409593593	0.255681724
6.574442707	-6.295604935	-0.081661846
6.969309352	-7.212804679	0.739882574
6.791032424	-7.071587099	0.723255978
6.70499345	-6.98638554	0.359978747
6.689711998	-7.018555658	0.006599858
6.65233064	-7.022348999	0.006584202
6.753480003	-7.167809791	0.366108429
6.726723749	-7.144656469	0.006679497
6.638279609	-7.084528191	0.716193364
6.74990036	-7.208189659	0.367111456
6.692473816	-7.15211683	0.006667244
6.68139627	-7.184331794	0.006678135
6.426655776	-6.947959549	0.351843011
6.705479274	-7.254732435	0.006724421
6.773256318	-6.844290826	0.617966617
6.533131606	-7.106687296	0.35886426
6.702809336	-7.296627356	0.006744161
6.749594405	-6.376675103	0.847327069
6.752926179	-6.865750208	0.618030633
6.660838956	-7.295740057	0.006724421
6.76372986	-5.985397773	0.408235182
6.658583863	-7.33835804	0.006744842
6.645131598	-6.360045052	0.502990275
6.762494863	-6.021399446	0.409273704
6.674211592	-7.401081951	0.006783641
6.767054972	-6.06278316	0.410673489
6.655478426	-7.425991341	0.006787724
6.706873892	-6.955853286	-0.086685535
6.709097055	-6.048064588	0.408280333
5.567127977	-6.250116145	0.005697278
6.691728947	-6.982894823	-0.086766276
10.53947251	-11.89703354	0.590862942
5.544612515	-6.263422853	0.005693874
6.66613652	-6.999047374	-0.086712446
6.707794461	-7.075794584	0.625715996
10.44283139	-11.86105979	0.587482345
6.78955892	-7.169559782	0.272363216
5.53197567	-6.287911972	0.005700681
6.657005963	-7.032537316	-0.086873922
6.706585189	-7.118130794	0.627637352
10.39652231	-11.88176111	0.586925101
5.520557595	-6.313887981	0.00570885
6.703918097	-7.125758333	-0.08777101
6.677894375	-7.13138859	0.6269969
10.33182351	-11.88117557	0.585327696
5.500504932	-6.330040297	0.005708169
6.626705716	-7.087129184	-0.087044369
6.655984193	-7.151842413	0.6269969
6.758206052	-6.282901845	0.41708531
10.28094915	-11.89618367	0.584510398
5.474522769	-6.339317211	0.005701362
6.710441622	-7.220963529	-0.088434856
6.528978633	-7.058675077	0.617069985
10.21575533	-11.89431375	0.5828758
5.450489409	-6.350771001	0.005696597
6.695041183	-7.248862858	-0.088524569
6.481627294	-7.050754383	0.614636268
6.769580154	-6.847116554	0.526523618
10.1467773	-11.88759548	0.58101834
5.432926697	-6.369745583	0.005698639
6.680884815	-7.278208519	-0.088632215
6.709655524	-6.347231465	0.755294168
6.701652467	-6.820134978	0.522865265
10.07922975	-11.88209039	0.579235148
5.412065666	-6.384857905	0.005697278
6.664589835	-7.305319806	-0.088712957
10.04530584	-11.91601319	0.579383743
5.38858628	-6.396843251	0.005693194
6.659609244	-7.344992504	-0.088946197
9.93169096	-11.85485382	0.574925792
5.302819041	-6.334366789	0.005623084
6.643737691	-7.372818271	-0.089035902
9.862025163	-11.84533319	0.572994006
5.291674861	-6.360599334	0.005631933
6.633095118	-7.406574088	-0.089197379
9.814807855	-11.86244499	0.572362494
5.318013375	-6.432294614	0.005680942
5.550611777	-6.236256567	-0.074897807
6.793254567	-7.128869127	0.538481383
6.706331592	-6.548763425	0.423677762
9.753616296	-11.86239652	0.570913684
6.745172009	-7.622136197	0.280745298
6.737942445	-7.076757767	0.176531406
5.30333334	-6.454760891	0.005686387
5.542053909	-6.265239919	-0.075041342
6.695472406	-6.578408987	0.424264749
9.705796149	-11.87833558	0.57024498
6.808236799	-7.741125552	0.28435734
6.733379999	-7.115551661	0.176982986
5.283505324	-6.471001235	0.005686387
5.524787074	-6.284466329	-0.075068254
6.71448123	-7.133336951	0.535696655
9.625213414	-11.8537522	0.567644489
6.719327837	-7.687465156	0.281627626
6.7190529	-7.144187564	0.177181693
5.264257556	-6.487956975	0.005687068
5.507454412	-6.30364564	-0.075095173
6.685743073	-7.146611419	0.535150675
9.575623123	-11.86689441	0.566864383
10.25465115	-11.80506427	0.431319863
6.755819868	-7.227584476	0.178735124
5.246211345	-6.506412041	0.00568911
5.488744623	-6.321267708	-0.075104143
9.48478254	-11.82838958	0.563632381
10.21120045	-11.82814627	0.431016565
6.750626608	-7.266589832	0.179186703
5.225599692	-6.521696278	0.005688429
5.46801874	-6.336563398	-0.075086202
6.779521403	-6.819358342	0.786347055
6.538084468	-7.075297874	0.526796608
9.434125903	-11.83945784	0.562777948
10.15794023	-11.83969273	0.43029967
6.72965815	-7.288735738	0.179222824
5.203075369	-6.534568348	0.005685706
5.443345086	-6.347236748	-0.075014431
6.556871258	-7.139448243	0.530072717
6.676585222	-6.764233602	0.429592898
9.380387874	-11.84640923	0.561737728
10.1150836	-11.86319458	0.430023939
5.178659836	-6.545011083	0.005680942
5.421252037	-6.360862317	-0.074978549
5.692214848	-6.207964139	-0.153781218
6.859759956	-6.985273294	0.800610208
6.527532304	-7.151418881	0.529472082
6.728557706	-6.858850389	0.434288909
9.337202167	-11.86649288	0.561329079
10.04568237	-11.85527679	0.428617746
5.147429747	-6.546717836	0.00566869
5.397833825	-6.372886307	-0.074924726
10.73749741	-11.83648961	0.873899191
9.276746297	-11.86438182	0.559880268
9.975781372	-11.84628052	0.427183957
5.124857984	-6.559327153	0.005665967
5.374392685	-6.384826496	-0.074870896
5.596671903	-7.198559921	0.672640607
10.69645257	-11.86418413	0.873517005
9.168568473	-11.80045947	0.555533778
9.94965493	-11.88909464	0.42762512
5.272127907	-6.790658492	0.005851792
5.585535257	-7.229902141	0.673964844
10.6360157	-11.87017312	0.871551363
9.137818428	-11.83565169	0.555868101
9.853049055	-11.84731988	0.425033272
5.567066577	-7.216143304	0.006203703
5.335754299	-6.418451905	-0.074879866
5.557608871	-6.212518886	-0.152193022
5.56332826	-7.247004262	0.673964844
10.5782987	-11.8788859	0.869804113
7.4627993	-9.727653702	0.455787343
9.835124113	-11.8998379	0.425832898
5.540034221	-7.22684003	0.006198257
5.319222379	-6.438646062	-0.074924726
5.552473885	-6.245231704	-0.15257637
5.541068247	-7.264038353	0.673964844
10.51996657	-11.88660887	0.868002264
6.781613443	-7.128445872	0.444719424
5.572418009	-7.309897211	0.341701191
9.716089618	-11.8295352	0.422248453
5.505111541	-7.227097055	0.006183963
5.302616028	-6.458799337	-0.074969578
5.537259971	-6.266732277	-0.152685908
5.516347169	-7.277824877	0.673670576
10.46432568	-11.8970852	0.866418807
6.737062802	-7.125264197	0.443229338
5.496867397	-7.256859803	0.338432026
9.6784874	-11.85773861	0.422193289
5.388161803	-7.118767938	0.006077096
5.285936656	-6.478911271	-0.075014431
5.51932712	-6.285193588	-0.152722416
5.498792853	-7.301087276	0.674259112
10.41134744	-11.91033872	0.865053742
6.733642235	-7.165554889	0.444448491
5.472174224	-7.270495847	0.338283431
5.719622386	-7.051531006	0.250442893
5.046530588	-6.710090233	0.005714975
5.266034756	-6.495097545	-0.075014431
5.500018568	-6.302097183	-0.152722416
5.479354929	-7.321915588	0.674626933
10.32368021	-11.88342932	0.860794811
6.668669162	-7.140184696	0.4416038
5.440865315	-7.275246199	0.337726188
9.545325133	-11.8421873	0.419546307
8.14076327	-9.378639066	0.224362703
4.949298342	-6.623007892	0.005627849
5.249847357	-6.515894974	-0.075068254
5.48131319	-6.319696593	-0.15274067
5.454485714	-7.335490432	0.674332665
10.27803758	-11.90446505	0.860030382
5.413751505	-7.285487511	0.337428999
9.478326674	-11.83318734	0.418195248
10.20639117	-11.83149541	0.282291295
5.334933226	-7.184918269	0.006091391
5.224207547	-6.524945666	-0.074987519
5.460593147	-6.334968671	-0.152704162
5.425436431	-7.343366771	0.673523412
10.18880054	-11.87456038	0.855607658
6.424229192	-6.963630584	0.428238293
5.382470982	-7.290003616	0.336871755
9.411474049	-11.82388713	0.41684419
10.16223491	-11.85364394	0.282074543
5.398355303	-7.31712845	0.006189408
5.198561462	-6.533899712	-0.074906785
5.439180701	-6.349413557	-0.1526494
10.14066015	-11.89208683	0.854624836
6.507478107	-7.097437457	0.435237129
5.355942502	-7.300842287	0.3366117
9.355311082	-11.82761712	0.415961862
10.06032982	-11.80789765	0.280250164
6.656383117	-7.261367864	0.085449321
5.376472526	-7.334462545	0.006190089
5.172909587	-6.542758536	-0.074826043
5.417083005	-6.363025526	-0.15257637
10.10348222	-11.92238022	0.854570238
5.321157466	-7.300280919	0.335831565
9.296741923	-11.8279703	0.414969236
10.0666982	-11.88906837	0.281442346
5.360421821	-7.359814367	0.006197576
5.137986008	-6.53972663	-0.074610744
5.39689024	-6.378852043	-0.152558116
10.03919892	-11.92048055	0.852222352
5.285254126	-7.297956394	0.334977132
9.193957475	-11.77135399	0.411991388
9.978675671	-11.85869365	0.279997291
5.336057823	-7.373794759	0.006195535
5.308445821	-6.313495254	-0.150604827
9.939775524	-11.87618446	0.846871404
9.950528415	-11.05519453	0.672294369
5.264006727	-7.315759354	0.335051429
9.139413607	-11.77581496	0.411164225
9.907612281	-11.84783409	0.279021861
5.315161729	-7.392566605	0.006197576
5.579527384	-7.192135824	-0.081661846
5.312771932	-6.358139678	-0.151280267
5.570427791	-7.215128741	0.584983612
9.872006441	-11.86900742	0.844195931
10.55529029	-11.79969761	0.715596845
5.242700067	-7.333500519	0.335125726
9.101411132	-11.80142382	0.411081493
9.805396123	-11.7989717	0.277161362
5.281993628	-7.394191577	0.006185324
5.56415149	-7.217931109	-0.081760529
5.325177523	-6.412869339	-0.152193022
5.564666763	-7.253563057	0.586712803
9.8120088	-11.87076261	0.842175691
10.56948457	-11.88876713	0.719028523
5.217282944	-7.345476912	0.334939969
5.556812475	-7.251183315	0.251986981
9.755780777	-11.8128097	0.276782038
8.354545916	-11.77160495	0.009825592
5.542589019	-7.235761469	-0.0817695
5.307387345	-6.431489688	-0.152247784
5.548436681	-7.278537375	0.587353255
9.750825683	-11.87071741	0.840046196
10.52634584	-11.9136516	0.718577017
8.369979618	-11.86110942	0.539670897
5.523033635	-7.253086546	0.251463086
9.706807195	-11.82722672	0.276420774
8.318968086	-11.7979982	0.009826273
5.314448198	-6.98219679	-0.078719404
5.292702759	-6.453927247	-0.15239383
5.530900919	-7.301889661	0.587865616
9.672688084	-11.84952461	0.836442499
10.41460261	-11.86031486	0.713429441
5.491104828	-7.257242523	0.251021922
9.65657375	-11.83990534	0.27602339
5.045693628	-6.671474288	-0.075041342
5.276667236	-6.474785183	-0.152503354
5.504872581	-7.314039784	0.587481345
9.596029578	-11.82951545	0.832947998
10.36043173	-11.87188911	0.712210288
5.462807031	-7.266065001	0.250746191
5.779928995	-7.131316867	0.16583802
5.005377807	-6.660542819	-0.074745308
5.25866565	-6.493274332	-0.152558116
5.485993361	-7.335689148	0.587865616
9.53211877	-11.82469561	0.830545514
10.3102157	-11.88776932	0.711262097
5.432113975	-7.271578882	0.250360191
5.782482729	-7.179384232	0.166542472
5.418677075	-7.256761121	-0.081249189
5.239346968	-6.510155737	-0.15257637
5.461676178	-7.350082181	0.58767351
9.462086252	-11.81180211	0.827597051
10.24108448	-11.88151103	0.709004392
5.403821683	-7.280183323	0.25008446
5.731065102	-7.160402718	0.165693508
10.15264607	-11.78140023	0.134909479
5.393409071	-7.269336166	-0.081204336
5.215602226	-6.521514549	-0.152466846
5.445028332	-7.374832293	0.588313962
9.399684017	-11.80796484	0.825303762
10.18703749	-11.89238944	0.707785239
5.376714223	-7.290291884	0.249863864
5.774419747	-7.260115177	0.167590143
10.13076307	-11.82920178	0.135100318
5.372861642	-7.288263339	-0.081231248
5.193081921	-6.534354097	-0.15239383
9.347926614	-11.81716922	0.823938696
10.13366757	-11.90380964	0.706611266
5.346050869	-7.295464889	0.249477864
5.754598639	-7.280934602	0.167662399
10.06590652	-11.82672098	0.134718655
8.257511816	-12.1808893	0.010016862
5.358158206	-7.315199657	-0.081347864
5.166193718	-6.541624334	-0.152193022
9.306691972	-11.83951253	0.823501913
10.07516208	-11.90891284	0.705076029
5.311287552	-7.294861672	0.248898835
5.735321994	-7.302486608	0.167752715
10.02505487	-11.85220298	0.134657932
8.197759196	-12.17298795	0.009989635
5.3409856	-7.338880784	-0.081428606
5.127582388	-6.533846703	-0.15164536
9.251270396	-11.84361601	0.821809261
9.993576666	-11.88624229	0.701915254
5.274234815	-7.290874053	0.248209507
5.719657789	-7.328717971	0.167951407
9.957761589	-11.84616141	0.134241579
8.183727465	-12.23298939	0.010018224
5.33660879	-7.380351944	-0.081706699
9.148156431	-11.78596542	0.815857677
9.923755733	-11.87698245	0.699567248
7.858362478	-11.8155772	0.527523052
5.243090915	-7.294845037	0.24779591
5.686730563	-7.332799931	0.167644324
9.90406195	-11.85593569	0.134007363
8.116270727	-12.21306457	0.009981467
5.316274972	-7.399937902	-0.081742588
5.339100598	-6.890007454	-0.159148229
7.502025465	-9.726645115	0.671709328
9.866211402	-11.88200972	0.698077192
7.814364166	-11.82795739	0.527002942
5.218943047	-7.308455949	0.247713209
5.578154466	-7.238545353	0.165097417
9.795465904	-11.79932388	0.133027194
8.067193983	-12.22038167	0.009967174
5.380156582	-6.987158792	-0.161010248
7.471541727	-9.748823111	0.67165473
9.772488429	-11.84287629	0.694013347
7.761042562	-11.82597643	0.525851321
5.191290765	-7.317095555	0.247465045
5.54680253	-7.243717212	0.16482647
9.736311144	-11.801552	0.13271491
8.031309244	-12.2475831	0.009969215
5.238397876	-6.846407655	-0.157395733
5.572879996	-7.317851482	0.502990274
9.708870042	-11.83958588	0.692071726
7.711081526	-11.82880316	0.524922562
5.152116057	-7.309293533	0.246665448
5.513050098	-7.245582373	0.164483281
9.696888806	-11.827501	0.132671548
7.996971183	-12.27719278	0.009973299
4.968663135	-6.535322344	-0.149892864
5.54919814	-7.333322147	0.502881079
9.670607885	-11.86699343	0.691936245
7.667693982	-11.84149969	0.524439644
5.484161788	-7.253689021	0.164284574
9.617606638	-11.80447896	0.1320817
4.947384293	-6.548939468	-0.149856356
5.522473008	-7.344725559	0.502498893
9.617808811	-11.87642246	0.690762272
7.625922732	-11.85656348	0.524068129
5.458278875	-7.2656835	0.164176198
9.577570013	-11.82926666	0.132029651
5.3426269	-7.117424984	-0.162488905
5.497523037	-7.358434174	0.502280443
9.552516534	-11.87007308	0.688685169
7.410358457	-11.59947554	0.511697364
5.43416826	-7.279991291	0.164122017
9.511771719	-11.82197767	0.13162197
5.304626124	-7.112143016	-0.16199602
5.465399413	-7.362437901	0.501406818
9.495465839	-11.87357817	0.687195113
5.410616869	-7.295023095	0.164085882
9.420505483	-11.78237452	0.130858643
5.33219178	-7.195056547	-0.163511199
5.412558057	-7.338188726	0.498622148
9.427917026	-11.86354886	0.684937408
5.383465243	-7.305148903	0.163941385
9.377471246	-11.80260792	0.130763231
5.311871425	-7.21379704	-0.163565961
5.37467353	-7.333819554	0.497202544
9.326467876	-11.81009796	0.680196275
7.294272136	-11.65278765	0.511065793
8.249578035	-12.17347356	0.405622096
5.356302534	-7.315177142	0.163796874
9.33502059	-11.82347375	0.130676491
7.334275228	-11.72624768	0.009414462
5.295028055	-7.237322296	-0.163730261
5.329813239	-7.319601012	0.495127647
9.277239948	-11.82215223	0.679248084
7.303863361	-11.74809669	0.514260662
8.182605044	-12.15477678	0.404160739
5.32148218	-7.314596891	0.16341755
9.288209657	-11.83868349	0.130529029
7.295099245	-11.74359668	0.009410379
8.197355022	-12.18219516	-0.13172828
5.372740892	-7.39101761	-0.166833637
5.290358728	-7.312457965	0.49354419
9.226797903	-11.8324395	0.678209533
7.26621126	-11.76789785	0.514149201
8.18584139	-12.24048182	0.406173558
5.267973493	-7.287941948	0.162460195
5.395065608	-6.920122736	0.076115912
7.261661314	-11.77017749	0.009413782
8.132712824	-12.16655131	-0.131288711
5.352382032	-7.410708517	-0.166906653
8.440645216	-11.74254808	0.790795533
9.175767365	-11.84173988	0.677125861
7.886615945	-11.87170212	0.393131674
5.243256591	-7.300821281	0.162387939
5.398917979	-6.969052809	0.07647155
8.087603619	-12.17978207	-0.131163124
8.403999017	-11.76757571	0.790740935
7.515805186	-9.761189995	0.556836237
8.030196563	-12.16866649	0.402147949
5.217348896	-7.311989916	0.162279563
5.383001543	-6.992714969	0.076549618
8.083784525	-12.25545583	-0.131710339
8.367279248	-11.7924891	0.790686337
7.487037029	-9.78578859	0.556926538
7.741285709	-11.80951554	0.389492065
5.19084359	-7.322252279	0.162153127
5.362130201	-7.009991013	0.07655829
5.9132698	-9.785022927	0.007782196
8.04231133	-12.27434424	-0.131647546
5.514548226	-7.245812682	0.744617188
8.312651247	-11.79198916	0.788939087
7.473303454	-9.830184675	0.558145692
7.72083638	-11.85750364	0.390291662
5.164900335	-7.333238204	0.16204475
5.344834091	-7.031981712	0.076619012
5.877047219	-9.792828806	0.007774027
8.010616927	-12.30817886	-0.131746221
5.540332643	-7.334201403	0.415459772
7.695278985	-11.89792171	0.390843124
5.335891108	-7.065103395	0.076801171
5.941685966	-9.969730932	0.007899953
5.477169636	-7.289074507	0.74559524
5.498015338	-7.324798676	0.413969715
7.665224351	-11.93156701	0.391173989
5.329195361	-7.101435316	0.077018021
5.94061155	-10.03782671	0.007939432
5.448641688	-7.305596644	0.411937793
5.323522794	-7.139395816	0.077252222
5.944241379	-10.11463074	0.007985719
5.420849582	-7.315055084	0.411531409
6.57051964	-11.2497587	0.484318149
5.310523522	-7.167746789	0.077382339
5.925782916	-10.15441245	0.008002736
5.377058516	-7.30269173	0.409905871
6.535974949	-11.26986353	0.484318149
5.295622028	-7.193668938	0.077486431
5.93972482	-10.25041544	0.008063996
5.341652042	-7.30141645	0.40891247
6.49239252	-11.27427496	0.483649474
7.315792069	-11.70095436	0.380641223
8.244583096	-12.17588238	0.265655132
5.282972524	-7.222795612	0.077625213
5.945652277	-10.33359749	0.008115048
7.328547064	-11.72681724	-0.124058191
5.311590788	-7.307265305	0.408325484
6.441404084	-11.2655126	0.482423526
7.289879201	-11.73947795	0.381165117
8.189889796	-12.17540182	0.265095176
5.279012297	-7.264045585	0.077894112
5.940708069	-10.39867717	0.008151804
7.299917848	-11.76114084	-0.124183778
5.285053235	-7.317857447	0.4080094
6.396451198	-11.26697199	0.481643391
7.25330358	-11.76093768	0.381137521
8.139165519	-12.1805186	0.264661642
5.279531359	-7.311825074	0.078232406
5.924072519	-10.44381865	0.008172905
7.263276123	-11.78263014	-0.124174807
7.846340611	-11.80990175	0.775343268
5.261412347	-7.332414197	0.407919099
6.360382487	-11.28393173	0.48153193
8.097888166	-12.19960121	0.264535191
5.277475371	-7.356425683	0.078536002
5.925371984	-10.52119365	0.008219191
7.805121602	-11.82641842	0.774851828
5.238312528	-7.34770786	0.407873948
6.318901413	-11.29118333	0.48101185
8.067576948	-12.23523887	0.264770033
8.357084289	-11.72496247	0.12489949
5.933084655	-10.61089516	0.008275007
5.937821944	-9.766097353	-0.102537069
7.753473509	-11.82692693	0.773323028
8.36840462	-11.81476153	0.654413511
6.265302684	-11.27644826	0.47956301
8.037123453	-12.27080523	0.265004845
8.321072941	-11.75054625	0.12489949
5.919917309	-10.66401972	0.008302234
5.913000841	-9.792828798	-0.102626774
7.700805758	-11.82555597	0.771684973
7.991260311	-12.28283417	0.264733912
5.919511767	-10.74081	0.008347839
7.651473779	-11.82900512	0.770374506
6.554534917	-11.96942157	0.507313681
7.980130757	-12.34844078	0.265618982
5.935009906	-10.8475259	0.008416588
7.600034463	-11.82890205	0.768845647
6.526373206	-12.0052769	0.507982385
7.826626974	-12.19280471	0.261753472
5.930817247	-10.91928611	0.00845811
6.467679808	-11.98478944	0.50627352
6.601095974	-11.23653368	0.359465391
5.928612724	-10.99552411	0.008503034
6.632379178	-11.29520011	-0.117509451
6.428521195	-12.00017186	0.506087792
6.544429392	-11.21874127	0.358252198
5.917973621	-11.05686219	0.008536387
6.567977524	-11.26452738	-0.116980169
6.391674951	-12.01983753	0.506087792
6.489938846	-11.20416682	0.357149274
8.277270702	-12.15712877	0.127579806
5.937510395	-11.17563941	0.008613984
6.517855948	-11.25779787	-0.116702076
7.339426108	-11.73755834	0.756997137
6.354768335	-12.03939	0.506087791
6.455534348	-11.22402505	0.357149274
7.333143839	-11.73844612	0.25004855
8.238253286	-12.17998075	0.127553789
5.936315427	-11.25660469	0.008662312
6.473319322	-11.26040318	-0.116522659
7.304434776	-11.76171698	0.757106333
6.316874847	-12.05705925	0.506013465
6.421069038	-11.24377675	0.357149274
7.30500337	-11.77363289	0.250319483
8.189693239	-12.18859746	0.127380295
5.920766888	-11.31108864	0.00869022
6.43378542	-11.27152603	-0.116432946
7.26569529	-11.77982195	0.756833284
7.868742751	-11.7862281	0.640551259
6.34393916	-12.19962008	0.511177254
6.383092048	-11.2573365	0.356956274
7.264127324	-11.78832831	0.250156911
8.160032948	-12.22531059	0.127501739
5.89986794	-11.35582156	0.008710641
6.400653756	-11.29382145	-0.116459858
7.836411118	-11.81614101	0.640867343
6.258358018	-12.12578488	0.507276547
6.34165964	-11.2646719	0.356570244
8.113645993	-12.23695279	0.12736295
5.918623421	-11.47785772	0.008790281
6.365974498	-11.31340489	-0.116459858
7.792978546	-11.82928282	0.640280356
6.305607125	-11.28145753	0.356487543
8.081015615	-12.2693033	0.127441017
5.900238699	-11.52889885	0.008815466
6.277101483	-11.23598277	-0.115464095
7.747350911	-11.83892487	0.639512767
6.271936619	-11.30249778	0.356542677
8.029649176	-12.27311819	0.12722416
5.815932839	-11.45065446	0.008741953
6.682393316	-11.13773813	0.710258095
7.702826498	-11.85007395	0.63883542
6.234819745	-11.31730891	0.356404812
7.994682888	-12.30188715	0.127267537
6.54325857	-11.88306788	-0.121698852
6.65483599	-11.16933883	0.710967927
7.64963634	-11.8476334	0.637435665
6.540147494	-11.95819225	0.375953854
6.54178471	-11.96713894	-0.122353721
6.624096972	-11.19571843	0.711350112
7.584669548	-11.82647913	0.635042538
6.481488953	-11.93779048	0.374685527
6.623126882	-11.2047856	0.23514642
7.949814236	-12.39869235	0.127761958
6.476899335	-11.93529786	-0.12182444
6.587694326	-11.21254438	0.711131721
6.453845045	-11.97433766	0.375209392
6.577584849	-11.20608272	0.234749021
5.810191012	-11.79566855	0.00895024
6.452582504	-11.97800101	-0.122057687
6.55326364	-11.23270272	0.711131721
6.410475724	-11.98174179	0.374823392
6.534615109	-11.21152478	0.234441953
5.88507229	-12.04074134	0.009122451
6.412503068	-11.99156875	-0.121994886
6.516268752	-11.24843438	0.710858731
6.374155195	-12.00223539	0.374850959
6.498685622	-11.22892332	0.234387757
5.831086082	-12.02364841	0.009095904
6.385528734	-12.02973395	-0.122183274
6.482226198	-11.26923889	0.710913329
7.286635789	-11.67459604	0.622038236
5.411254483	-11.23516183	0.463588727
6.333573361	-12.01466025	0.374630362
6.461714481	-11.2444739	0.234297441
7.323809695	-11.73689215	0.120007245
6.31270049	-11.9811475	-0.121492516
6.432270857	-11.26219448	0.709220676
7.261837232	-11.71472608	0.622986485
5.381499625	-11.2616286	0.463997376
6.303171224	-12.0464345	0.375016392
6.428177274	-11.26598235	0.234333577
7.285133203	-11.75505601	0.119963875
5.778742379	-12.10432214	0.009129939
6.303254575	-12.05273862	-0.122021798
7.227434014	-11.7395022	0.623121908
5.346495877	-11.27718279	0.463960213
6.284151375	-12.10031426	0.376091719
6.395061814	-11.2882607	0.234387757
7.251655462	-11.78160958	0.120007245
5.306669576	-11.20378443	0.008438369
6.260258576	-12.06048154	-0.121905181
5.320379544	-11.31161815	0.464703214
6.245624757	-12.11687037	0.376009018
6.361380556	-11.30956944	0.234423892
5.262915874	-11.20010145	0.008423395
5.890290743	-11.43338093	-0.115383353
5.283960321	-11.32426524	0.46455462
6.211608241	-12.1422044	0.376202018
6.32714067	-11.3299057	0.234441953
5.20360167	-11.16271975	0.008383235
5.871118828	-11.4825597	-0.115697335
5.17867257	-11.18806793	0.458313507
6.289442494	-11.34401761	0.234333577
5.148344041	-11.13324911	0.008349201
5.084695042	-11.0740372	0.453001123
6.252681508	-11.35975581	0.234261321
5.105824756	-11.13081355	0.008335587
6.643632367	-11.17153113	0.587495615
5.056494931	-11.10231694	0.453521204
6.514571471	-11.92199069	0.245442422
6.635196339	-11.16000577	0.112625522
5.0679247	-11.13823359	0.008329461
6.628630787	-11.22454802	0.589211454
5.027758004	-11.12961663	0.454004151
6.475580724	-11.93752633	0.245352106
6.61566999	-11.2052815	0.112877076
5.037842501	-11.16284395	0.008336268
6.590625869	-11.23879927	0.588895371
4.995223651	-11.14863686	0.454152745
6.437030293	-11.95381566	0.245279865
6.57721583	-11.21862466	0.112807682
5.01296842	-11.19924014	0.008351923
5.820569772	-11.82786816	-0.118263002
6.410961753	-11.98133128	0.743073671
6.559633559	-11.26500985	0.589211454
4.975199701	-11.19587187	0.45545299
6.394670127	-11.96292697	0.245063098
6.537232689	-11.22924438	0.112712262
4.987918481	-11.23558804	0.008367579
6.486584483	-12.21258427	0.756178109
6.525542037	-11.28594592	0.589256634
4.951709234	-11.23577252	0.456456017
6.380432576	-12.02488357	0.245930137
6.500749287	-11.24578384	0.112677565
4.958662942	-11.26273617	0.008376428
6.49038883	-11.30504644	0.589211454
4.925218612	-11.2692257	0.457199019
5.400908491	-11.22890373	0.343693793
6.3323288	-12.02317031	0.245496618
6.464225592	-11.26220625	0.112642867
5.106548681	-11.6957999	0.008686817
6.451717264	-11.31796265	0.58885025
5.009440593	-11.55843561	0.468306732
5.3685861	-11.24993186	0.343831659
6.256503326	-11.96811167	0.243979307
6.426672628	-11.27677309	0.112590825
5.078588884	-11.72976463	0.00870043
5.352127299	-11.22148715	-0.111534852
5.033930707	-11.71330366	0.473953438
5.314797587	-11.22569319	0.342590899
6.258436819	-12.06179886	0.245496618
6.392045757	-11.29643664	0.112590825
5.037055527	-11.73242629	0.008690901
5.31468113	-11.23152737	-0.111472059
4.995620491	-11.72317636	0.473730546
5.189812641	-11.0492265	0.336717904
6.232388251	-12.10227608	0.245930137
6.353930087	-11.30989109	0.112530103
4.996728648	-11.73770326	0.008683413
5.272124351	-11.23058159	-0.111301612
4.958464291	-11.73568537	0.473619085
5.137313263	-11.02522881	0.335504711
6.151546967	-12.03587152	0.244196074
6.322611941	-11.33544413	0.112590825
4.958749795	-11.74837171	0.00868001
5.207671806	-11.18234343	-0.110664677
5.178244339	-11.18733558	0.791143263
4.922050129	-11.74992086	0.473581952
5.106819094	-11.04819704	0.335725278
6.291196265	-11.36091256	0.112651547
4.917278653	-11.75061478	0.008670481
5.147339254	-11.14198581	-0.110108483
5.157639557	-11.23309801	0.793256725
4.918556873	-11.84341182	0.476739657
5.079149342	-11.07744269	0.336138875
6.283289334	-11.42923083	0.113137295
4.985052401	-12.01595788	0.008854944
5.106883293	-11.14408895	-0.109973919
5.119429588	-11.24069473	0.792680348
4.904644788	-11.91296589	0.478931469
5.071626073	-11.15120904	0.33790353
6.518376925	-11.9435037	0.118029533
4.928766061	-11.98402865	0.00882023
5.073910931	-11.1624354	-0.11000083
5.08163314	-11.24907283	0.792167987
4.879778859	-11.95663855	0.48008312
5.043145437	-11.17947211	0.338289559
6.486944207	-11.9731167	0.118124952
4.89688431	-12.01113221	0.008829079
5.042518434	-11.18433081	-0.110063631
5.038936814	-11.24639532	0.790887083
4.846071474	-11.97896452	0.480380309
5.016172192	-11.21131656	0.338785858
6.354503272	-11.81506692	0.11637277
4.86675594	-12.04278705	0.008841331
5.011855602	-11.20796415	-0.110144366
4.996304489	-11.24356269	0.789606179
4.813760793	-12.00490527	0.480826092
4.988645434	-11.24218573	0.339254589
6.411001627	-12.00828428	0.118081583
5.004607957	-11.28453152	-0.110745419
4.96218857	-11.25975143	0.789670254
4.965002613	-11.2821409	0.33999905
6.37272592	-12.02524576	0.118055558
5.141869252	-11.69068143	-0.114575978
4.955955868	-11.35595566	0.341763706
6.331613217	-12.0367754	0.117977491
5.100381552	-11.69356954	-0.114450384
5.066403172	-11.70687322	0.351855309
6.251614145	-11.97370703	0.117170794
5.066467064	-11.71375098	-0.114495236
5.02849174	-11.71776809	0.351717443
5.270294301	-11.14244129	0.222682821
6.199667104	-11.96353164	0.116884543
5.030506076	-11.72923972	-0.114495236
5.259267137	-11.19576362	0.6764051
4.988213366	-11.72302232	0.351414145
5.239907811	-11.16670408	0.222845392
6.194491769	-12.04385356	0.117483063
4.99136705	-11.73725677	-0.114423472
5.230799402	-11.22451672	0.67716953
4.951058352	-11.73550765	0.351331443
5.19802919	-11.16641103	0.222520264
4.956110982	-11.75435696	-0.114441413
5.196757094	-11.24141882	0.677224128
4.923903163	-11.7718533	0.351965607
5.161231395	-11.17685954	0.222411873
4.945866048	-11.83132059	-0.115042459
5.156001501	-11.24369476	0.676405101
4.921843024	-11.86908474	0.35441959
5.115258413	-11.16718967	0.221906113
4.965822145	-11.98223342	-0.116361182
5.11528083	-11.24582701	0.675586074
4.899088219	-11.9174121	0.355412186
5.077664998	-11.17554743	0.221761601
4.293644879	-11.6403688	0.008445176
4.917257755	-11.96873888	-0.116083082
5.094305617	-11.29150246	0.677387922
4.276750187	-11.69174841	0.462808591
4.862126109	-11.93146095	0.355384619
5.04458734	-11.19380752	0.221815796
4.277131044	-11.70608621	0.008483294
4.904276445	-12.04211297	-0.116648246
5.04862843	-11.28246975	0.67591366
4.245626187	-11.71796782	0.463328671
4.832611297	-11.96393132	0.355908513
5.013077625	-11.21562134	0.221942233
4.23881479	-11.71257033	0.00847853
5.003054344	-11.27326381	0.674439458
4.216069079	-11.7488091	0.46403451
4.813717614	-12.02324607	0.357232005
4.982696684	-11.24008861	0.222122865
4.210284194	-11.74622977	0.008493505
4.974880619	-11.3031827	0.675313084
4.188370207	-11.7852288	0.464963269
5.059651404	-11.50885802	0.227126362
4.182925184	-11.78359366	0.008511202
5.126315324	-11.74484508	0.700757413
5.040302274	-11.5609873	0.227848889
5.084309203	-11.74677144	0.699938385
4.151495181	-11.91262045	0.468975407
5.012348234	-11.59383361	0.228192093
4.143746314	-11.90442414	0.008579951
5.040763944	-11.74488153	0.698900967
5.270624816	-11.15491099	0.557648947
4.106127556	-11.89979545	0.46797238
4.985028465	-11.62845506	0.228571417
5.277200768	-11.17185708	0.107178135
4.094822792	-11.88115456	0.008554085
4.434079996	-11.56887833	0.795114065
4.993759779	-11.7345653	0.697372108
5.277929166	-11.25967281	0.562074055
4.083491697	-11.95299942	0.469569814
4.971623368	-11.6961436	0.229601027
5.253933612	-11.21153716	0.107403664
4.070624217	-11.9296255	0.008579951
4.943373003	-11.71579128	0.695351867
5.280848648	-11.35643172	0.56609272
4.974940252	-14.70976746	0.577266228
6.554963928	-17.28798326	0.509984792
4.925620799	-11.68738596	0.229131373
5.198013724	-11.18135805	0.106961286
4.957618514	-14.67627321	0.010544389
4.915883552	-11.75116818	0.69655308
5.235521864	-11.3499023	0.564963868
4.934546457	-14.73917516	0.577823472
6.502597477	-17.30988504	0.510039926
4.888970506	-11.7005975	0.229095252
5.158660233	-11.1863565	0.106857194
4.765423486	-14.25136387	0.010228554
4.907732292	-11.83352438	0.700539021
5.133339989	-11.21874991	0.557648947
4.909736621	-14.81590266	0.580238175
4.849224178	-11.70630398	0.22891462
5.11391764	-11.17939716	0.106640337
4.732989859	-14.30009346	0.010253058
5.055959003	-11.13984013	0.552952995
4.87640472	-14.86792752	0.581687045
4.248615546	-11.5240989	0.338785857
4.809868447	-11.71280235	0.228752049
5.072158252	-11.17864276	0.106484203
4.693142332	-14.32690037	0.010261907
4.249028879	-11.53266141	-0.110260989
5.019708192	-11.15074487	0.552727213
4.834161174	-14.89327372	0.582095694
4.273247851	-11.70139824	0.343611092
4.767502975	-11.71176038	0.22844498
5.0374285	-11.19323902	0.10647553
4.63683101	-14.30318104	0.01023468
4.268478619	-11.69593987	-0.111696329
4.985474971	-11.16609216	0.552727213
4.778667237	-14.87758943	0.58090688
4.236988534	-11.71351394	0.343583495
4.724440903	-11.70871509	0.228101777
5.008363201	-11.22051187	0.106588295
3.55924389	-11.09508062	0.007931264
4.235975527	-11.71838485	-0.111786034
4.95564354	-11.19138278	0.553223898
3.546799769	-11.1598496	0.435317946
4.209797704	-11.75092432	0.34430039
4.68292812	-11.70922927	0.227830829
4.983630068	-11.25776906	0.106796471
3.514296469	-11.07163578	0.00790676
4.214496918	-11.77180745	-0.11217178
4.933335736	-11.2339734	0.554578533
3.497557307	-11.12301359	0.433460486
4.178071681	-11.77603171	0.344658852
4.633719238	-11.69007999	0.227180557
4.97559825	-11.33343582	0.107368974
3.471324293	-11.05374363	0.007886339
4.186047423	-11.80635912	-0.112378117
4.910015224	-11.27470087	0.555842807
3.450355416	-11.09170643	0.431825888
4.161804714	-11.84538043	0.346313209
4.595273567	-11.69772646	0.227054121
5.096077952	-11.70529891	0.110743223
3.443329277	-11.08344022	0.007899953
4.161400698	-11.85216834	-0.112692092
5.064318548	-11.72717662	0.577381183
3.412195494	-11.08886779	0.431305808
4.142195583	-11.90624279	0.347719402
4.553923043	-11.69779348	0.226783173
5.058953523	-11.71812398	0.110717205
3.416065916	-11.11593814	0.007915609
4.131258414	-11.88282501	-0.112862539
5.025956852	-11.73714877	0.577110221
3.374376687	-11.08685638	0.430822861
4.092300133	-11.88014568	0.34658894
4.513695029	-11.7005159	0.226566406
5.018650104	-11.72347736	0.110621786
3.388053855	-11.14645854	0.007929903
4.075905735	-11.84060417	-0.112342227
4.98602024	-11.74331802	0.576658716
3.341499038	-11.1009844	0.430971456
4.073902136	-11.94562649	0.348132998
4.473136123	-11.7021677	0.226331593
4.978752075	-11.72961405	0.110535046
3.356144061	-11.1644614	0.007935348
4.079236436	-11.96947289	-0.113445651
4.945705093	-11.74843094	0.57616203
3.323676498	-11.16577676	0.43308897
4.971240323	-14.72454476	0.428672881
4.429068201	-11.69433081	0.225916134
4.934597397	-11.72547906	0.110352887
3.323870848	-11.18141563	0.007940113
4.638991737	-13.74994378	-0.130185295
4.953886266	-11.86956822	0.581354727
3.30774502	-11.23823325	0.435503703
4.928260848	-14.7463633	0.42886588
4.385793276	-11.68820518	0.22553681
4.884354055	-11.7064175	0.110031946
3.295473052	-11.21170739	0.007954408
4.580314485	-13.71479082	-0.129718814
4.910954853	-11.86901892	0.580587079
3.287770361	-11.29822276	0.43743546
4.901204847	-14.81645818	0.430465103
4.344687984	-11.68754828	0.225265862
4.845358416	-11.71395523	0.109962551
4.158507941	-14.31000701	0.010143469
4.680702457	-14.15982089	-0.133791584
4.289325734	-11.63288027	0.677988557
4.874897108	-11.88495327	0.580632259
